1268
9.45135 -7.25036 10.8461 0.1 45 209 0
6.14256 -9.78827 4.37312 0.1 23 231 0
-9.00386 -3.96939 9.66827 0.1 0 185 69
-8.92114 -4.21322 3.85737 0.1 0 187 67
3.74875 6.28258 5.80252 0.1 0 77 177
0.214179 14.1204 13.111 0.1 198 56 0
-9.3762 0.382554 0.551107 0.1 0 162 92
6.26059 -0.132652 0.983812 0.1 0 39 215
-0.0832255 -10.9877 12.9866 0.1 0 248 6
-9.47652 -1.11597 0.135012 0.1 0 170 84
-8.05609 -6.03855 7.61031 0.1 0 196 58
-5.01331 6.84682 4.55668 0.1 0 124 130
6.24656 -0.20737 15.8553 0.1 0 38 216
4.2476 -3.61552 11.9078 0.1 0 15 239
12.3259 3.64642 12.4044 0.1 107 147 0
2.83863 -4.45203 13.7264 0.1 0 4 250
6.61238 -9.53325 11.0161 0.1 28 226 0
6.06211 12.2613 3.44162 0.1 163 91 0
-2.26114 14.116 13.6901 0.1 213 41 0
-2.8767 -10.331 0.78768 0.1 0 233 21
-8.06654 -6.02123 15.341 0.1 0 197 57
-4.27821 13.7896 1.47016 0.1 226 28 0
5.64229 -10.0299 4.93801 0.1 21 233 0
11.7785 5.51101 14.3197 0.1 116 138 0
-4.32685 -9.6482 13.4223 0.1 0 228 26
5.62214 4.00364 8.88675 0.1 0 57 197
-4.53136 13.7274 8.48494 0.1 227 27 0
-8.11828 -5.93436 10.9327 0.1 0 196 58
2.16209 -4.66976 6.94649 0.1 0 2 252
-7.51112 -6.84762 3.16967 0.1 0 201 53
-9.04991 1.80417 10.1345 0.1 0 158 96
11.2436 6.7341 4.54354 0.1 124 130 0
-0.602245 7.9071 7.93326 0.1 0 99 155
-6.73174 5.56475 1.49885 0.1 0 138 116
6.33583 0.423958 13.4061 0.1 0 40 214
0.490299 -11.0291 4.65411 0.1 0 251 3
4.66658 12.9785 9.9261 0.1 170 84 0
6.33807 0.449581 15.8971 0.1 0 42 212
-1.4903 14.1638 6.49833 0.1 207 47 0
-9.31353 0.753969 3.01062 0.1 0 162 92
-8.1536 3.78667 0.678227 0.1 0 149 105
10.6922 -5.626 3.74092 0.1 56 198 0
-9.44073 -1.82761 5.2105 0.1 0 174 80
-2.51802 14.0908 12.5614 0.1 215 39 0
11.522 6.14022 7.34556 0.1 119 135 0
3.70241 6.31927 0.928607 0.1 0 80 174
5.91973 12.3439 16.2463 0.1 162 92 0
5.93528 -9.892 3.2685 0.1 22 232 0
12.6058 1.05668 1.94992 0.1 90 164 0
3.84472 13.3119 13.3354 0.1 174 80 0
4.09581 5.98706 8.13065 0.1 0 72 182
3.66743 6.34656 9.61232 0.1 0 75 179
-2.9971 -10.2842 3.32379 0.1 0 233 21
-0.824486 -10.8888 14.3171 0.1 0 244 10
10.2877 8.34702 5.60837 0.1 133 121 0
-2.20256 -10.5628 2.49944 0.1 0 237 17
8.08416 -8.53246 5.08218 0.1 36 218 0
8.82032 10.1143 11.341 0.1 144 110 0
5.45231 -10.114 10.8181 0.1 21 233 0
-9.46458 -0.5042 1.98338 0.1 0 168 86
-8.92774 -4.19452 8.61708 0.1 0 185 69
-0.922593 7.91642 5.11381 0.1 0 104 150
12.5699 0.0456213 13.7526 0.1 83 171 0
1.77469 -4.74925 9.05787 0.1 0 1 253
-4.33453 13.7762 12.4819 0.1 225 29 0
9.47397 9.40282 16.4166 0.1 138 116 0
6.0148 3.07664 4.71285 0.1 0 55 199
-1.12612 -10.8336 7.68157 0.1 0 239 15
-7.12569 5.16036 4.94168 0.1 0 139 115
10.4073 8.17148 15.7666 0.1 130 124 0
1.28504 7.57781 2.05751 0.1 0 91 163
3.08205 6.75621 11.1708 0.1 0 80 174
6.04473 2.98594 3.92955 0.1 0 53 201
-6.02523 -8.44737 3.37573 0.1 0 214 40
-1.84802 -10.6651 3.75296 0.1 0 238 16
-8.41333 3.329 0.991375 0.1 0 151 103
-7.53965 4.67231 1.88489 0.1 0 145 109
5.63166 12.5043 0.632493 0.1 186 68 0
-6.45357 -8.05319 6.44551 0.1 0 210 44
-9.90075 11.0893 0.444101 0.1 252 2 0
2.22315 -4.65431 13.9542 0.1 0 3 251
6.30689 1.81914 13.4496 0.1 0 48 206
2.69777 -10.9094 8.15755 0.1 8 246 0
12.5663 1.99738 13.2372 0.1 98 156 0
0.778687 -11.0386 2.55508 0.1 0 252 2
12.5757 1.87015 14.5134 0.1 95 159 0
12.6054 0.879126 9.15941 0.1 90 164 0
-10.1342 10.9038 5.68254 0.1 252 2 0
11.0618 7.08451 10.8801 0.1 125 129 0
-8.71043 11.9257 5.86473 0.1 246 8 0
1.25537 7.58684 13.2456 0.1 0 91 163
-8.73544 11.9099 14.2391 0.1 246 8 0
10.3179 8.3033 12.7428 0.1 132 122 0
12.5245 2.42987 5.98858 0.1 97 157 0
-3.99604 13.8532 16.4649 0.1 224 30 0
5.79005 3.65281 11.3403 0.1 0 57 197
3.20966 -10.8179 14.9983 0.1 11 243 0
5.66277 -1.87146 4.75031 0.1 0 24 230
-1.78499 -10.6819 9.96921 0.1 0 239 15
3.84244 -3.9184 5.63967 0.1 0 14 240
-0.867717 -10.8815 14.4721 0.1 0 244 10
5.26113 -10.1945 11.0532 0.1 20 234 0
4.5047 -3.39039 9.80885 0.1 0 16 238
0.608206 14.0809 4.12262 0.1 197 57 0
10.3925 8.19351 1.86544 0.1 129 125 0
-9.45545 -0.352114 13.2631 0.1 0 167 87
-4.51039 -9.54166 12.8975 0.1 0 226 28
4.11463 -10.5951 1.65049 0.1 14 240 0
-8.3536 -5.51157 11.2978 0.1 0 193 61
5.52165 -2.12378 7.8306 0.1 0 21 233
5.00075 4.99491 1.17931 0.1 0 67 187
4.43089 5.66245 8.2684 0.1 0 69 185
-9.30646 0.790878 15.5181 0.1 0 162 92
-3.00617 7.65917 16.0727 0.1 0 113 141
6.93681 11.7002 11.6108 0.1 159 95 0
-2.23183 7.81974 3.82532 0.1 0 109 145
-8.25818 -5.68887 8.00535 0.1 0 193 61
4.10606 -3.72806 8.8575 0.1 0 13 241
-2.34512 7.80114 5.38295 0.1 0 111 143
-8.59229 -5.0254 7.25197 0.1 0 188 66
12.4929 2.68406 4.37286 0.1 101 153 0
6.23261 2.26671 9.4042 0.1 0 49 205
8.35464 10.5635 4.95762 0.1 151 103 0
12.3849 -1.34744 6.74304 0.1 75 179 0
4.12824 5.95745 2.87965 0.1 0 74 180
3.53026 13.4235 1.6726 0.1 182 72 0
5.52342 4.18861 2.9259 0.1 0 59 195
-3.31467 -10.1526 3.10578 0.1 0 231 23
5.28243 -10.1857 7.73336 0.1 20 234 0
-8.88494 11.8138 13.4074 0.1 245 9 0
1.16748 14.0054 1.5871 0.1 200 54 0
-7.79712 4.32846 13.9966 0.1 0 145 109
12.2408 -2.00521 13.8416 0.1 73 181 0
1.44528 13.9594 6.33931 0.1 190 64 0
-0.346123 -10.9585 3.02578 0.1 0 247 7
-2.31824 14.1108 3.5518 0.1 214 40 0
2.61313 7.02791 8.25581 0.1 0 82 172
4.5713 -3.3273 9.44285 0.1 0 17 237
12.5953 1.514 16.4471 0.1 91 163 0
-0.0117778 14.138 4.69411 0.1 199 55 0
-0.714141 7.91184 13.655 0.1 0 102 152
-8.44525 -5.33273 6.26176 0.1 0 193 61
-0.380018 14.1589 12.9235 0.1 202 52 0
5.12647 4.82211 0.606267 0.1 0 66 188
10.6236 7.83782 14.9465 0.1 128 126 0
11.0242 7.15402 5.0836 0.1 126 128 0
-2.16109 -10.5754 1.3717 0.1 0 236 18
6.06122 2.934 12.0119 0.1 0 52 202
-9.87722 11.1076 2.03615 0.1 251 3 0
2.2028 -4.65955 13.8804 0.1 0 3 251
-0.141833 7.87072 13.9666 0.1 0 98 156
6.22119 -0.331188 15.1138 0.1 0 34 220
-3.66554 -9.99292 6.88641 0.1 0 228 26
12.0008 4.8718 12.9109 0.1 114 140 0
12.5908 1.61573 11.6275 0.1 96 158 0
-4.50327 13.7346 10.9726 0.1 230 24 0
-6.8707 -7.62247 6.45093 0.1 0 207 47
6.35358 0.681249 3.43588 0.1 0 41 213
10.3925 8.19351 9.0992 0.1 130 124 0
-7.14952 5.13415 6.20622 0.1 0 138 116
12.062 -2.65138 7.98617 0.1 71 183 0
-4.78365 13.6606 3.27151 0.1 228 26 0
-8.95026 2.10299 6.20618 0.1 0 156 98
1.83833 7.38462 0.0570036 0.1 0 90 164
-8.99839 1.96293 5.82437 0.1 0 157 97
-9.41093 -2.11655 0.176158 0.1 0 173 81
-9.17434 -3.38243 9.37094 0.1 0 181 73
10.5868 -5.78867 5.65648 0.1 56 198 0
5.04278 12.8048 11.3133 0.1 169 85 0
0.313323 -11.0195 13.0457 0.1 0 249 5
10.1408 -6.41968 7.81856 0.1 51 203 0
-8.90782 -4.2506 2.21439 0.1 0 186 68
6.89328 -9.36694 7.27645 0.1 29 225 0
12.0991 4.54901 4.19931 0.1 110 144 0
-9.47212 -1.308 0.154279 0.1 0 170 84
-4.42352 7.15031 3.50349 0.1 0 121 133
12.2103 -2.1258 1.15379 0.1 71 183 0
-7.46171 4.76987 14.1311 0.1 0 142 112
-5.38889 -8.95801 8.38745 0.1 0 219 35
12.5158 -0.505545 0.745655 0.1 78 176 0
1.2239 -11.0384 0.601051 0.1 0 254 0
1.88685 13.8743 4.59287 0.1 187 67 0
4.15586 13.1929 13.2889 0.1 173 81 0
1.99664 13.8508 1.60478 0.1 196 58 0
4.36991 5.72475 12.5163 0.1 0 72 182
-5.21863 -9.08133 2.94058 0.1 0 221 33
-5.60597 -8.79297 4.3937 0.1 0 220 34
-8.50515 3.15076 0.106143 0.1 0 152 102
10.0677 -6.51533 16.1165 0.1 49 205 0
8.37451 10.5452 4.90466 0.1 152 102 0
3.29201 -4.24512 5.80888 0.1 0 9 245
-1.29739 -10.7983 10.589 0.1 0 241 13
-7.74475 4.40128 16.4557 0.1 0 146 108
-9.09336 1.66202 4.38038 0.1 0 159 95
6.01478 12.289 9.59342 0.1 163 91 0
-0.0945342 7.86543 9.96625 0.1 0 96 158
-2.38833 -10.5039 10.6608 0.1 0 236 18
-8.94082 -4.15709 11.4686 0.1 0 186 68
-2.40387 14.1026 13.9824 0.1 215 39 0
-8.03506 -6.07314 0.916451 0.1 0 198 56
-8.85301 -4.39969 3.19985 0.1 0 188 66
-1.01905 7.91668 9.94512 0.1 0 101 153
12.4483 2.98869 1.11358 0.1 101 153 0
2.13352 13.8203 6.02567 0.1 185 69 0
-7.62718 4.5593 2.8006 0.1 0 144 110
10.0712 8.65001 15.7469 0.1 134 120 0
-2.59309 -10.4346 14.6841 0.1 0 234 20
-2.06128 14.1325 12.3795 0.1 213 41 0
5.96806 -1.19231 12.117 0.1 0 28 226
-2.24802 7.81718 2.89782 0.1 0 111 143
7.84222 -8.72041 14.9994 0.1 33 221 0
6.33103 0.372788 12.3094 0.1 0 34 220
10.5868 -5.78867 12.14 0.1 54 200 0
11.2039 -4.74182 9.12397 0.1 61 193 0
-9.87722 11.1076 11.4019 0.1 250 4 0
-9.40148 -2.19358 14.5366 0.1 0 179 75
12.604 0.777763 2.09846 0.1 88 166 0
3.60918 13.3963 5.24546 0.1 177 77 0
2.96512 -10.8647 11.7708 0.1 10 244 0
-4.3928 7.16454 5.31339 0.1 0 120 134
6.32551 1.66117 15.696 0.1 0 48 206
-7.39974 -6.99407 5.48037 0.1 0 202 52
8.95425 -7.76474 16.0787 0.1 41 213 0
-9.37226 -2.40534 13.4297 0.1 0 179 75
12.564 -0.0297844 10.0736 0.1 84 170 0
-0.170999 -10.9787 13.0921 0.1 0 247 7
7.11109 -9.23047 14.3484 0.1 29 225 0
-8.48401 12.0658 10.5652 0.1 246 8 0
-0.141833 7.87072 15.014 0.1 0 100 154
11.0885 -4.95677 13.1226 0.1 58 196 0
-9.46737 -0.561334 3.20856 0.1 0 169 85
4.92908 -2.94918 0.101144 0.1 0 21 233
2.20663 -10.9744 8.76521 0.1 7 247 0
1.04563 -11.0406 5.30607 0.1 0 254 0
-8.84749 2.37996 3.12547 0.1 0 158 96
-7.27264 -7.15468 16.2087 0.1 0 203 51
-8.99839 1.96293 12.8244 0.1 0 156 98
-3.20192 14.0005 4.52712 0.1 218 36 0
9.88861 -6.74154 5.52335 0.1 50 204 0
3.32062 -10.7948 9.27553 0.1 12 242 0
10.9733 7.24639 9.33113 0.1 125 129 0
10.8426 7.47574 15.9134 0.1 127 127 0
8.32161 -8.33781 10.8659 0.1 39 215 0
-1.66155 14.1568 0.24755 0.1 217 37 0
-1.91851 14.1425 5.83808 0.1 211 43 0
-0.607187 14.167 3.59787 0.1 203 51 0
-7.60932 12.5562 1.22301 0.1 240 14 0
-3.76175 -9.94642 2.93606 0.1 0 229 25
12.4208 -1.15059 12.9894 0.1 75 179 0
-9.97113 11.0342 16.4736 0.1 249 5 0
5.72817 12.4516 8.6194 0.1 164 90 0
0.313323 -11.0195 3.38994 0.1 0 249 5
-7.46171 4.76987 3.94551 0.1 0 137 117
-7.3367 4.9206 12.3962 0.1 0 139 115
4.81313 -3.07954 12.9452 0.1 0 19 235
-0.954731 7.91664 13.4424 0.1 0 104 150
3.65583 -4.03926 1.40951 0.1 0 14 240
-6.54212 -7.9659 7.58707 0.1 0 211 43
5.75587 3.72855 5.11197 0.1 0 58 196
-9.22125 -3.19174 14.5715 0.1 0 183 71
12.0025 -2.84034 5.01796 0.1 68 186 0
3.35985 -4.20956 2.82306 0.1 0 6 248
-6.10351 -8.37861 3.70511 0.1 0 214 40
6.89198 11.7313 5.50589 0.1 161 93 0
-7.79712 4.32846 15.1635 0.1 0 146 108
-2.99012 7.66331 5.22008 0.1 0 112 142
10.789 7.56684 15.2279 0.1 126 128 0
-9.47255 -0.694842 2.91755 0.1 0 170 84
8.7634 10.1715 0.845674 0.1 143 111 0
4.28252 -3.58656 8.13807 0.1 0 15 239
2.58638 7.04206 4.50228 0.1 0 83 171
10.9216 7.3384 5.14969 0.1 127 127 0
-7.13762 5.14727 10.6757 0.1 0 137 117
2.56393 -10.9293 5.5135 0.1 7 247 0
4.75995 5.29771 0.50013 0.1 0 71 183
12.4651 -0.878626 0.0701745 0.1 76 178 0
10.7346 7.65755 10.3964 0.1 128 126 0
-5.85032 -8.59606 1.52849 0.1 0 215 39
-8.72824 -4.71425 7.93502 0.1 0 188 66
4.18183 5.9077 11.0021 0.1 0 70 184
4.84227 5.19801 15.44 0.1 0 67 187
12.5093 2.557 5.10338 0.1 99 155 0
6.66578 11.8842 15.3656 0.1 161 93 0
9.89487 8.88417 15.5888 0.1 135 119 0
12.1656 -2.29393 13.7166 0.1 73 181 0
12.3205 3.67164 4.7754 0.1 106 148 0
12.2696 3.89825 0.622805 0.1 105 149 0
-7.84881 4.25504 7.54467 0.1 0 144 110
0.74845 14.0641 10.1309 0.1 195 59 0
9.28884 -7.42543 15.3895 0.1 42 212 0
-6.64396 -7.86284 5.67224 0.1 0 210 44
9.53138 -7.16149 14.6445 0.1 44 210 0
5.59641 4.05318 15.3086 0.1 0 60 194
4.53985 13.034 1.95604 0.1 178 76 0
-5.63893 -8.76711 2.62995 0.1 0 217 37
-8.69969 2.73674 9.23262 0.1 0 153 102
11.661 -3.76584 11.885 0.1 65 189 0
2.94571 13.6088 9.27357 0.1 181 73 0
-2.91691 -10.3155 1.45731 0.1 0 233 21
-6.27533 5.9737 8.35924 0.1 0 131 123
-9.46672 -1.44259 9.15739 0.1 0 172 82
2.57298 7.0491 1.13061 0.1 0 85 169
10.9447 -5.21112 12.7261 0.1 58 196 0
7.96972 10.9039 16.3243 0.1 149 105 0
5.40992 -10.1322 6.88861 0.1 20 234 0
4.78918 -10.3761 6.56785 0.1 17 237 0
-9.45413 -0.333132 3.00702 0.1 0 168 86
5.88665 3.42395 14.4146 0.1 0 57 197
-5.81008 13.3374 3.05622 0.1 236 18 0
5.53467 12.5563 14.3365 0.1 166 88 0
-2.28529 -10.537 11.9791 0.1 0 235 19
11.642 -3.81121 1.67509 0.1 65 189 0
-8.50713 -5.20667 10.158 0.1 0 190 64
-10.5455 10.5574 12.4827 0.1 254 0 0
9.28884 -7.42543 15.6519 0.1 42 212 0
9.88861 -6.74154 1.51108 0.1 49 205 0
10.8955 -5.29502 14.7973 0.1 57 197 0
-7.73977 12.488 1.10668 0.1 241 13 0
12.2984 3.77243 1.75611 0.1 105 149 0
6.26059 -0.132652 3.59952 0.1 0 35 219
12.2208 4.09914 15.8274 0.1 107 147 0
3.49446 -4.13523 4.67486 0.1 0 10 244
12.3771 3.3939 13.1471 0.1 104 150 0
4.5727 -10.4515 13.7957 0.1 15 239 0
-9.46144 -0.447121 12.7541 0.1 0 167 87
2.68845 -4.50941 13.63 0.1 0 4 250
4.82879 -3.0624 5.21584 0.1 0 20 234
5.30371 -10.1769 9.96698 0.1 23 231 0
2.13352 13.8203 16.6343 0.1 184 70 0
-5.67252 13.3857 11.5283 0.1 234 20 0
4.2331 13.162 11.4792 0.1 172 82 0
3.55659 13.4145 14.859 0.1 175 79 0
11.9526 5.0201 2.71275 0.1 114 140 0
-9.10745 -3.62942 9.36981 0.1 0 182 72
12.566 -0.00465714 9.21928 0.1 85 169 0
-7.72362 4.43023 3.47332 0.1 0 140 114
5.05624 -2.79638 11.5605 0.1 0 21 233
-7.14952 5.13415 5.03763 0.1 0 139 115
-9.43541 -0.105889 2.41689 0.1 0 166 88
12.5128 -0.530491 15.6878 0.1 78 176 0
10.8159 7.52134 7.96587 0.1 127 127 0
12.4825 2.76026 7.61445 0.1 100 154 0
4.88711 5.14208 14.1091 0.1 0 66 188
-9.04566 -3.83748 9.80957 0.1 0 185 69
9.22293 -7.49446 3.03064 0.1 42 212 0
9.09935 9.82313 15.9333 0.1 141 113 0
-8.86741 2.32836 12.2542 0.1 0 154 100
5.61118 -1.96713 16.3487 0.1 0 27 227
-9.43902 -1.84687 5.46207 0.1 0 173 81
-9.47729 -1.00092 11.7147 0.1 0 169 85
1.62237 7.46576 13.5242 0.1 0 89 165
4.47107 5.62056 4.31676 0.1 0 69 185
1.09017 -11.0403 6.03521 0.1 0 252 2
-9.4406 -0.162602 12.3598 0.1 0 166 88
12.3252 -1.64109 6.16303 0.1 74 180 0
12.5788 0.171452 5.89578 0.1 83 171 0
-6.84488 5.45391 4.376 0.1 0 135 119
3.60918 13.3963 12.4597 0.1 178 76 0
5.30965 -2.45562 16.3253 0.1 0 26 228
-0.346123 -10.9585 6.39929 0.1 0 246 8
7.63414 -8.87413 6.98439 0.1 33 221 0
-5.94834 6.23319 4.02322 0.1 0 130 124
6.12713 -0.708893 1.20066 0.1 0 36 218
6.29689 12.1198 6.92787 0.1 162 92 0
6.34935 0.603822 6.03201 0.1 0 40 214
9.62631 -7.05369 2.16085 0.1 46 208 0
-7.45047 4.7837 3.70103 0.1 0 138 116
-1.4253 -10.7701 6.33235 0.1 0 240 14
11.3583 -4.43648 3.87434 0.1 62 192 0
12.3146 -1.68984 14.7854 0.1 74 180 0
5.87277 -9.92227 11.907 0.1 22 232 0
-3.39324 -10.1182 1.7561 0.1 0 231 23
6.91441 11.7158 9.18511 0.1 159 95 0
10.6656 7.7704 5.30903 0.1 129 125 0
0.312333 7.80776 11.4612 0.1 0 93 161
-9.46482 -1.48106 15.0594 0.1 0 173 81
-0.720909 14.1697 10.9838 0.1 204 51 0
-6.32908 13.1413 15.9363 0.1 236 18 0
-8.42722 -5.36861 13.6439 0.1 0 195 59
2.16194 -10.9792 9.29923 0.1 7 247 0
6.36062 1.05792 7.02584 0.1 0 39 215
5.96969 3.20578 2.98809 0.1 0 55 199
-8.03886 3.97062 5.38377 0.1 0 147 107
5.9724 -1.18076 6.01887 0.1 0 29 225
-6.51323 5.76783 7.43079 0.1 0 133 121
-3.85463 13.8828 1.51827 0.1 224 30 0
-9.36644 -2.44382 7.07208 0.1 0 177 77
1.93847 -11.0005 13.056 0.1 3 251 0
9.23946 -7.47726 2.05516 0.1 43 211 0
-9.09657 -3.66732 16.4171 0.1 0 184 70
-4.34532 -9.63771 13.6916 0.1 0 227 27
1.44701 -11.0315 15.8759 0.1 2 252 0
1.08389 14.0182 16.4028 0.1 192 62 0
-6.43753 13.0974 16.5863 0.1 237 17 0
-5.36624 6.63571 0.25923 0.1 0 127 127
-3.18242 7.61148 5.64737 0.1 0 114 140
4.36898 -3.51273 7.63356 0.1 0 15 239
-9.26889 0.974745 5.66096 0.1 0 161 93
5.03414 -2.82373 0.0546828 0.1 0 22 232
6.05986 -9.83028 6.53491 0.1 23 231 0
-6.1113 13.2264 4.65943 0.1 235 19 0
-5.66788 6.43606 15.3423 0.1 0 130 124
3.47754 13.4414 3.81818 0.1 177 77 0
11.5533 6.06819 8.69358 0.1 119 135 0
5.38831 12.6329 4.49617 0.1 169 85 0
7.20286 11.51 16.2944 0.1 157 97 0
2.98777 -4.38968 7.96763 0.1 0 6 248
-6.89845 -7.59197 13.3679 0.1 0 209 45
9.84582 8.94741 0.802915 0.1 135 119 0
3.42931 6.52355 16.0676 0.1 0 81 173
6.25602 -0.157593 11.6118 0.1 0 34 220
0.776467 14.0606 8.4783 0.1 195 59 0
3.24335 -4.26986 16.5759 0.1 0 12 242
7.11474 11.5741 11.582 0.1 158 96 0
11.0368 7.13087 12.3104 0.1 125 129 0
-2.5114 -10.4628 9.42685 0.1 0 236 18
-8.9593 11.765 8.21062 0.1 248 6 0
12.5931 1.56486 6.30981 0.1 93 161 0
-8.38267 12.1267 13.9331 0.1 243 11 0
12.5892 0.34792 11.3154 0.1 88 166 0
4.11745 5.96734 5.15643 0.1 0 73 181
7.28732 -9.11504 8.95306 0.1 32 222 0
10.3925 8.19351 3.17375 0.1 131 123 0
-3.40092 13.9679 2.63616 0.1 221 33 0
12.5929 0.42365 2.85071 0.1 87 167 0
6.02266 -1.04118 14.9738 0.1 0 32 222
10.8331 -5.39924 7.7802 0.1 57 197 0
2.89208 13.6244 7.70342 0.1 180 74 0
6.11912 2.73861 12.1833 0.1 0 52 202
0.383278 14.1048 4.18098 0.1 197 57 0
-8.22776 3.66224 9.09402 0.1 0 148 106
-9.54437 11.3583 2.79675 0.1 249 5 0
4.84289 12.8988 15.2 0.1 170 84 0
-7.13492 12.7906 1.40039 0.1 239 15 0
8.46543 -8.21475 0.749134 0.1 36 218 0
-8.38267 12.1267 4.23894 0.1 241 13 0
5.79005 3.65281 13.9314 0.1 0 58 196
-4.8396 13.6452 12.9963 0.1 227 27 0
3.80699 -10.6797 4.81354 0.1 13 241 0
-2.00417 14.1366 15.4375 0.1 211 43 0
5.18314 4.74042 6.68482 0.1 0 63 191
-1.66155 14.1568 4.83689 0.1 209 45 0
-1.10465 -10.8378 2.75417 0.1 0 243 11
-1.27603 -10.8029 3.99919 0.1 0 241 13
1.60141 -4.7746 11.8547 0.1 0 1 253
5.60018 -10.0489 10.072 0.1 24 230 0
2.22897 -10.9719 7.59585 0.1 4 250 0
-8.86741 2.32836 11.4782 0.1 0 153 101
-9.23455 -3.13443 4.94217 0.1 0 181 73
4.02663 13.2434 1.88217 0.1 179 75 0
6.35949 0.849636 1.55487 0.1 0 44 210
5.87117 3.46225 3.4199 0.1 0 56 198
-0.506551 7.90178 13.1294 0.1 0 100 154
9.82939 8.96843 10.7287 0.1 136 118 0
3.09857 -10.8398 13.3819 0.1 9 245 0
7.53858 -8.94239 10.5796 0.1 33 221 0
6.61238 -9.53325 10.113 0.1 30 224 0
2.76466 -10.8988 2.88531 0.1 8 246 0
3.87078 13.3023 11.7089 0.1 174 80 0
-1.5355 7.89812 16.2161 0.1 0 108 146
-9.05725 -3.79972 6.71712 0.1 0 183 71
11.5944 5.97191 4.37693 0.1 120 134 0
7.57096 11.2303 10.5157 0.1 155 99 0
3.20966 -10.8179 0.903736 0.1 11 243 0
12.0772 4.62367 14.7496 0.1 110 144 0
2.97787 -4.39399 8.59643 0.1 0 6 248
-9.92424 11.071 9.7805 0.1 251 3 0
-8.00324 -6.12489 10.8062 0.1 0 198 56
4.983 -10.3044 6.97711 0.1 18 236 0
4.14171 -3.70042 2.20483 0.1 0 11 243
10.5331 -5.86929 12.3427 0.1 54 200 0
-1.20505 14.1709 0.079915 0.1 216 38 0
-5.81008 13.3374 7.01768 0.1 231 23 0
-1.59508 -10.7301 0.901134 0.1 0 240 14
1.28504 7.57781 6.00084 0.1 0 90 164
2.56871 13.7135 10.8492 0.1 183 71 0
-7.63546 12.5427 3.60163 0.1 240 14 0
9.42161 9.46375 6.34354 0.1 140 114 0
5.58182 -2.01974 7.12807 0.1 0 24 230
-0.35165 14.1576 2.83015 0.1 203 51 0
12.3755 -1.39652 1.09016 0.1 74 180 0
3.43695 -4.16761 0.658302 0.1 0 14 240
-9.47616 -0.847733 3.14804 0.1 0 171 83
8.17603 -8.45838 13.2897 0.1 35 219 0
6.10272 -0.792797 5.57826 0.1 0 30 224
-3.82633 13.8886 7.13985 0.1 222 32 0
-0.347545 7.89035 15.5415 0.1 0 101 153
12.4562 2.93796 14.307 0.1 101 153 0
1.98887 -4.70924 11.4253 0.1 0 2 252
3.97988 -3.82216 9.78505 0.1 0 12 242
6.36669 12.0765 11.2865 0.1 162 92 0
-7.49527 4.72821 4.57331 0.1 0 141 113
4.4858 -10.4803 11.332 0.1 16 238 0
8.09279 10.7979 4.14659 0.1 151 103 0
-2.97419 14.0343 11.5152 0.1 217 37 0
12.0396 4.74788 7.46989 0.1 111 143 0
11.8829 -3.1913 9.43419 0.1 69 185 0
5.26113 -10.1945 3.0616 0.1 19 235 0
-4.76309 -9.38668 8.92754 0.1 0 221 33
-0.6294 -10.9199 13.0012 0.1 0 245 9
-3.13667 -10.2278 15.8415 0.1 0 232 22
6.28634 1.964 6.47409 0.1 0 45 209
0.789192 7.71172 9.22071 0.1 0 93 161
12.5961 0.499437 6.25325 0.1 87 167 0
-4.36268 13.7694 9.10288 0.1 227 27 0
0.773967 7.71528 1.49797 0.1 0 94 160
0.934326 -11.0405 15.6119 0.1 0 252 2
10.7209 7.68017 5.49105 0.1 129 125 0
12.486 2.73487 13.334 0.1 100 154 0
1.87143 -11.006 12.5161 0.1 3 251 0
12.6025 0.701792 9.62832 0.1 89 165 0
5.80254 -1.58833 12.8943 0.1 0 27 227
-2.77583 -10.3689 5.18017 0.1 0 232 22
-10.0179 10.9972 2.8426 0.1 253 1 0
2.54164 13.7206 11.703 0.1 182 72 0
-7.86154 -6.34721 6.80539 0.1 0 199 55
2.75865 -4.48325 14.9284 0.1 0 8 246
1.62565 -11.0228 8.56561 0.1 5 249 0
12.3573 3.49498 1.61849 0.1 103 151 0
12.0548 4.69823 12.5545 0.1 112 142 0
-4.66773 7.03178 14.6343 0.1 0 124 130
11.148 6.92157 9.80382 0.1 124 130 0
5.96969 3.20578 4.39481 0.1 0 54 200
2.8376 6.90357 13.0417 0.1 0 83 171
5.43418 -2.26676 1.9145 0.1 0 26 228
4.56005 5.52529 8.21854 0.1 0 67 187
4.99297 12.8286 0.37148 0.1 185 69 0
5.06764 12.7928 13.2976 0.1 170 84 0
-8.43625 -5.35068 1.09254 0.1 0 195 59
-6.1931 13.1949 15.8974 0.1 235 19 0
6.15361 -0.612357 6.31183 0.1 0 33 221
-6.93163 5.36612 7.91258 0.1 0 135 119
9.9937 -6.61016 2.2601 0.1 48 206 0
-5.72759 13.3665 12.0993 0.1 233 21 0
-9.20759 -3.24901 2.79352 0.1 0 184 70
0.986089 7.66281 9.06192 0.1 0 92 162
4.91805 12.8639 1.47958 0.1 181 73 0
-8.51582 -5.1886 4.78187 0.1 0 193 61
3.78496 -10.6855 2.06387 0.1 14 240 0
11.7412 5.60851 14.6081 0.1 117 137 0
-6.61682 5.6733 13.3553 0.1 0 133 121
-7.36198 -7.04249 6.97664 0.1 0 201 53
11.2554 6.71057 3.03045 0.1 123 131 0
1.38005 -11.034 2.1825 0.1 1 253 0
-9.4582 -1.59653 9.57984 0.1 0 172 82
3.04392 6.78006 1.5597 0.1 0 82 172
4.79679 5.25355 8.57419 0.1 0 64 190
0.832466 14.0534 1.05932 0.1 201 53 0
-5.58944 -8.80585 1.74979 0.1 0 219 35
4.5944 -10.4441 5.89093 0.1 15 239 0
3.50164 6.47138 8.05701 0.1 0 78 176
7.13682 11.5581 6.06599 0.1 160 94 0
5.86228 -1.4544 1.76894 0.1 0 31 223
11.3476 -4.45845 11.9504 0.1 62 192 0
12.566 -0.00465714 9.6346 0.1 83 171 0
4.16046 5.92766 16.6614 0.1 0 76 178
3.37917 -4.1992 10.6846 0.1 0 9 245
-7.32028 12.7015 1.6009 0.1 240 14 0
-6.05854 6.14862 10.2875 0.1 0 131 123
9.26221 9.64478 9.10568 0.1 139 115 0
3.93057 6.13248 0.492982 0.1 0 79 175
4.139 5.94754 2.56146 0.1 0 73 181
-8.48401 12.0658 2.1027 0.1 245 9 0
0.867596 -11.04 10.9541 0.1 0 252 2
-9.00873 11.7323 16.2334 0.1 244 10 0
-8.46312 -5.29678 7.8164 0.1 0 190 64
6.10804 2.77776 2.06639 0.1 0 54 200
-8.54565 3.06893 6.33447 0.1 0 152 102
-0.39518 7.89411 9.34304 0.1 0 98 156
1.50068 13.9495 15.5521 0.1 189 65 0
3.34051 -4.21983 2.79437 0.1 0 5 249
-5.86494 6.29534 3.53588 0.1 0 129 125
-5.68207 6.42621 4.25203 0.1 0 129 125
1.056 14.0223 2.79249 0.1 195 59 0
4.08495 5.99689 8.4057 0.1 0 71 183
-9.45545 -0.352114 11.3047 0.1 0 165 89
11.911 5.14334 12.5225 0.1 114 140 0
-6.64396 -7.86284 7.6496 0.1 0 209 45
-8.32662 3.48886 12.2253 0.1 0 149 105
-5.96205 -8.50185 3.37771 0.1 0 214 40
6.17856 -0.515154 7.38375 0.1 0 29 225
8.73017 -7.97736 12.0202 0.1 40 214 0
11.8493 -3.28412 5.67604 0.1 68 186 0
7.99033 10.8864 4.89294 0.1 153 101 0
4.95942 -2.91371 12.8596 0.1 0 20 234
-7.51751 4.70031 16.0351 0.1 0 144 110
12.5302 -0.380667 5.87751 0.1 80 174 0
3.6879 13.3687 11.7331 0.1 175 79 0
-4.26946 7.22013 2.19339 0.1 0 119 135
3.60841 -10.7295 5.55392 0.1 13 241 0
6.34418 0.526596 2.91774 0.1 0 40 214
12.6049 1.15822 14.9589 0.1 92 162 0
12.4231 3.14079 9.39408 0.1 103 151 0
12.5808 1.79382 15.575 0.1 94 160 0
6.50543 11.9887 2.94204 0.1 161 93 0
7.13682 11.5581 7.36106 0.1 158 96 0
12.5356 -0.330649 10.5076 0.1 82 172 0
9.27241 -7.44274 12.6715 0.1 43 211 0
-8.40904 -5.40444 12.8728 0.1 0 194 60
7.24831 -9.14098 15.5573 0.1 31 223 0
-2.20404 14.121 14.3319 0.1 212 42 0
-6.69362 5.60119 6.1343 0.1 0 134 120
-8.95026 2.10299 0.857803 0.1 0 157 97
-5.63946 6.45567 12.5952 0.1 0 127 127
5.02635 4.9606 12.6103 0.1 0 65 189
11.7351 -3.58347 15.6993 0.1 65 189 0
12.5961 0.499437 1.60615 0.1 85 169 0
12.5065 -0.580352 7.56195 0.1 79 175 0
3.82899 6.21756 2.43448 0.1 0 75 179
10.8831 -5.31592 12.9898 0.1 58 196 0
-8.05035 12.3188 0.827999 0.1 242 12 0
-6.89459 5.40391 7.15293 0.1 0 135 119
-10.5004 10.5967 16.0324 0.1 253 1 0
6.34323 0.513745 16.098 0.1 0 42 212
5.77624 12.425 12.1022 0.1 164 90 0
-9.06647 1.75098 6.82819 0.1 0 158 96
2.85379 -10.8841 15.3093 0.1 9 245 0
11.8746 -3.21453 1.93397 0.1 67 187 0
-8.96651 -4.08212 12.1005 0.1 0 186 68
-9.04433 1.82187 4.45208 0.1 0 159 95
0.242385 14.1179 4.03009 0.1 198 56 0
-1.57592 14.1606 4.07132 0.1 208 46 0
-9.36192 0.475788 1.53863 0.1 0 163 91
8.64265 -8.05745 5.45282 0.1 40 214 0
0.712955 7.72919 3.29409 0.1 0 94 160
5.44055 -2.25665 5.45818 0.1 0 23 231
6.16628 -0.563837 1.6961 0.1 0 36 218
6.13052 -0.696863 6.31885 0.1 0 32 222
-0.455274 -10.9445 11.5909 0.1 0 247 7
1.83186 13.8857 8.84616 0.1 187 67 0
-7.25974 -7.17062 5.04874 0.1 0 204 51
9.45135 -7.25036 0.61611 0.1 43 211 0
10.9604 7.26943 8.94242 0.1 124 130 0
2.89833 -10.8765 8.61233 0.1 10 244 0
-7.0051 5.28978 16.3657 0.1 0 140 114
-9.05547 1.78645 9.1662 0.1 0 157 97
-8.45553 3.24829 7.06066 0.1 0 150 104
-6.20811 6.02919 15.4987 0.1 0 132 122
-0.236738 -10.9714 9.24624 0.1 0 246 8
-7.89479 -6.29619 16.0542 0.1 0 200 54
1.19588 7.60454 9.77887 0.1 0 89 165
10.5812 7.90501 0.594385 0.1 128 126 0
-6.51868 13.064 12.955 0.1 236 18 0
12.5273 2.40444 4.89283 0.1 98 156 0
-5.50694 13.4417 12.7565 0.1 230 24 0
-6.88459 -7.60723 4.27033 0.1 0 208 46
-2.18183 -10.5691 13.0939 0.1 0 238 16
3.99803 -3.80897 15.2902 0.1 0 16 238
3.2043 -4.28926 7.34326 0.1 0 7 247
6.3537 1.29335 1.09411 0.1 0 46 208
4.37693 -10.5154 2.86198 0.1 15 239 0
-0.0117778 14.138 13.3653 0.1 199 55 0
-1.2906 14.1693 6.42929 0.1 207 47 0
-0.458784 7.89869 12.1964 0.1 0 99 155
-9.44226 -0.181522 12.3811 0.1 0 166 88
5.7344 -1.73113 4.82067 0.1 0 25 229
6.12191 -9.79884 9.81527 0.1 26 228 0
-1.90791 7.86386 1.71519 0.1 0 110 144
2.95804 -4.40255 16.3062 0.1 0 11 243
4.89303 12.8756 1.53927 0.1 180 74 0
2.35167 13.7686 6.28274 0.1 183 71 0
-6.68088 5.61328 4.626 0.1 0 134 120
-1.87551 7.86754 9.10527 0.1 0 107 147
-3.16642 7.61599 9.14409 0.1 0 113 141
-9.54437 11.3583 4.01209 0.1 248 6 0
3.76641 13.3405 7.23715 0.1 174 80 0
-7.35966 4.89343 4.66593 0.1 0 140 114
11.2554 6.71057 8.95376 0.1 122 132 0
11.8593 5.29078 5.59422 0.1 118 136 0
12.603 0.727111 14.0991 0.1 88 166 0
-0.506551 7.90178 12.0334 0.1 0 98 156
8.5544 -8.13658 4.95199 0.1 40 214 0
4.70273 -10.4068 8.05553 0.1 18 236 0
9.95963 8.79943 3.20259 0.1 134 120 0
-9.47595 -1.15435 3.15106 0.1 0 172 82
0.712056 -11.0371 10.3681 0.1 0 251 3
4.83234 -10.3605 13.2206 0.1 17 237 0
-5.09778 -9.16574 14.1779 0.1 0 222 32
1.13473 -11.0398 4.97256 0.1 0 254 0
0.187758 7.82775 13.3595 0.1 0 96 158
0.860449 14.0497 11.2676 0.1 193 61 0
-9.97113 11.0342 8.87792 0.1 251 3 0
6.34689 0.565184 9.18703 0.1 0 38 216
0.66766 -11.0358 5.87068 0.1 0 250 4
12.2577 3.94852 12.2097 0.1 108 146 0
12.1952 4.19938 4.0917 0.1 109 145 0
4.983 -10.3044 16.4112 0.1 17 237 0
-9.41093 -2.11655 14.3534 0.1 0 179 75
-9.35132 11.4972 9.40417 0.1 248 6 0
8.07238 10.8157 10.3527 0.1 150 104 0
8.07238 10.8157 5.11091 0.1 154 100 0
-3.76175 -9.94642 12.1842 0.1 0 229 25
-5.01331 6.84682 8.36487 0.1 0 124 130
8.30351 -8.35302 10.3263 0.1 39 215 0
-5.85032 -8.59606 0.00900108 0.1 0 218 36
6.47045 -9.61327 11.4837 0.1 26 228 0
7.5282 11.2639 9.01549 0.1 157 97 0
9.47397 9.40282 2.75674 0.1 137 117 0
8.37451 10.5452 10.9487 0.1 145 109 0
-9.21021 1.23015 0.182236 0.1 0 160 94
0.468155 -11.0281 16.6566 0.1 0 250 4
2.54612 7.0631 16.6223 0.1 0 85 169
-9.41778 0.0638343 1.33577 0.1 0 164 90
4.47107 5.62056 5.83937 0.1 0 70 184
-8.00324 -6.12489 11.7191 0.1 0 197 57
9.47397 9.40282 10.9533 0.1 138 116 0
8.7061 10.2285 3.82442 0.1 144 110 0
7.8869 10.9738 8.00518 0.1 152 102 0
-5.38889 -8.95801 3.65734 0.1 0 221 33
-7.72362 4.43023 5.76599 0.1 0 143 111
5.87277 -9.92227 13.7549 0.1 21 233 0
0.832466 14.0534 1.48764 0.1 201 53 0
8.33474 10.5817 12.1745 0.1 146 108 0
8.03143 10.8511 2.41543 0.1 148 106 0
11.9443 5.04477 0.59269 0.1 111 143 0
-5.06288 13.581 2.96229 0.1 231 23 0
-9.44073 -1.82761 5.64644 0.1 0 173 81
0.91059 7.68222 14.3912 0.1 0 93 161
6.23525 2.25356 2.9788 0.1 0 50 204
3.0541 -10.8483 13.4569 0.1 9 245 0
1.15702 -11.0395 6.496 0.1 0 253 1
0.559677 7.76185 10.9216 0.1 0 92 162
3.48964 6.48013 0.58296 0.1 0 81 173
12.4536 -0.952942 1.59921 0.1 76 178 0
-5.35506 -8.98293 9.31914 0.1 0 217 37
10.9216 7.3384 9.88726 0.1 125 129 0
4.42051 -10.5015 11.3594 0.1 15 239 0
1.7597 -11.0143 2.91123 0.1 3 251 0
-5.75275 6.37649 6.68203 0.1 0 128 126
10.134 8.564 9.18892 0.1 133 121 0
2.47676 -4.58136 5.94334 0.1 0 5 249
1.65235 -4.76779 13.3646 0.1 0 0 254
-5.61738 13.4046 3.78056 0.1 232 22 0
-0.542418 -10.9326 9.40637 0.1 0 245 9
7.0038 11.6532 7.35628 0.1 159 95 0
7.84527 11.0085 7.51665 0.1 152 102 0
0.91638 14.0421 10.1272 0.1 194 60 0
9.65768 -7.01748 4.91909 0.1 46 208 0
12.4376 -1.05187 13.8063 0.1 77 177 0
-7.56169 4.64421 0.894044 0.1 0 143 111
12.598 0.549992 6.89705 0.1 87 167 0
9.94888 -6.66667 8.16198 0.1 49 205 0
11.5533 6.06819 3.06661 0.1 120 134 0
3.98621 6.0845 4.24886 0.1 0 74 180
-7.03516 -7.43796 11.3009 0.1 0 206 48
-7.47828 12.6231 12.8625 0.1 239 15 0
12.5736 0.095931 8.41885 0.1 85 169 0
-9.18077 11.616 14.3732 0.1 247 7 0
-9.26493 0.993067 6.72743 0.1 0 160 94
12.4688 -0.85383 6.11876 0.1 77 177 0
11.7621 -3.51471 15.923 0.1 66 188 0
-9.31001 0.772429 13.8495 0.1 0 161 93
3.84244 -3.9184 8.07286 0.1 0 11 243
10.3266 -6.16721 13.9705 0.1 53 201 0
4.66146 -3.23849 10.0997 0.1 0 18 236
-9.43547 -1.88539 10.4725 0.1 0 174 80
1.7217 13.9078 5.79284 0.1 189 65 0
1.13619 7.62178 2.1379 0.1 0 91 163
2.47465 -10.9416 9.64782 0.1 7 247 0
-2.84547 7.699 7.38077 0.1 0 112 142
-4.56125 7.08467 3.6226 0.1 0 122 132
-8.45872 12.0811 7.2607 0.1 250 4 0
3.19452 -4.29406 14.2795 0.1 0 9 245
1.96922 13.8568 6.9995 0.1 185 69 0
7.48529 11.2972 2.83468 0.1 156 98 0
-0.550359 14.1653 4.77804 0.1 202 52 0
6.57192 -9.55633 5.43686 0.1 28 226 0
8.532 10.3975 5.15675 0.1 148 106 0
4.63703 -3.26295 5.62172 0.1 0 18 236
6.32268 1.68749 9.02079 0.1 0 44 210
-6.91227 -7.57668 2.04087 0.1 0 208 46
-9.36045 -2.48229 10.9393 0.1 0 178 76
4.56982 5.51462 3.68585 0.1 0 68 186
-2.23259 14.1186 2.34058 0.1 214 40 0
12.6056 1.08206 7.15947 0.1 91 163 0
11.94 -3.02807 13.4349 0.1 70 184 0
0.383278 14.1048 3.46691 0.1 197 57 0
4.26508 -3.60108 16.0915 0.1 0 19 235
-8.90976 11.7976 8.51318 0.1 247 7 0
-8.25818 -5.68887 6.51291 0.1 0 194 60
3.93904 -10.6446 4.82574 0.1 13 241 0
-8.90782 -4.2506 11.8489 0.1 0 187 67
-9.56835 11.3408 2.79232 0.1 250 4 0
-1.58404 7.89465 4.71991 0.1 0 107 147
2.43319 13.7483 0.851275 0.1 190 64 0
-8.46388 3.23208 8.08762 0.1 0 148 106
-1.99456 -10.6244 15.3475 0.1 0 237 17
6.36098 1.00575 11.1505 0.1 0 42 212
6.21336 2.35871 5.43606 0.1 0 51 203
-8.81362 2.46562 13.8833 0.1 0 156 98
4.71708 12.956 0.0765377 0.1 188 66 0
12.5065 -0.580352 7.45148 0.1 80 174 0
-5.47929 13.4508 15.9109 0.1 229 25 0
11.5325 6.11623 4.36583 0.1 120 134 0
9.87346 -6.76017 3.92311 0.1 48 206 0
-7.87266 -6.33022 3.15569 0.1 0 199 55
-9.47522 -1.19275 13.372 0.1 0 172 82
0.0469436 7.84786 7.98353 0.1 0 95 159
12.0025 -2.84034 1.17518 0.1 69 185 0
-9.46357 -0.485168 14.5125 0.1 0 169 85
12.3987 -1.27372 0.686102 0.1 75 179 0
8.66769 10.2663 0.526083 0.1 143 111 0
5.79742 -1.5994 9.02185 0.1 0 25 229
-6.48321 -8.0242 10.8715 0.1 0 211 43
12.4053 3.2421 11.5586 0.1 104 150 0
5.71475 3.81654 1.48474 0.1 0 60 194
5.48224 4.26195 8.00742 0.1 0 59 195
-2.31276 7.80662 5.31713 0.1 0 110 144
7.22878 -9.15389 1.76202 0.1 30 224 0
-0.889315 -10.8777 7.55832 0.1 0 240 14
9.71308 9.11474 4.21823 0.1 138 116 0
9.40294 -7.30325 7.46796 0.1 44 210 0
1.87669 -4.7314 10.3936 0.1 0 1 253
-4.83385 6.94545 8.77099 0.1 0 121 133
3.50391 13.4325 16.627 0.1 176 78 0
-9.46579 -1.46183 6.73611 0.1 0 171 83
0.379641 -11.0235 12.2747 0.1 0 249 5
6.41307 12.0474 6.20603 0.1 162 92 0
-6.61503 -7.89241 14.8819 0.1 0 212 42
-1.90791 7.86386 14.6265 0.1 0 110 144
-7.31114 -7.10673 5.54556 0.1 0 203 51
3.47754 13.4414 4.54471 0.1 178 76 0
-8.75056 2.6187 12.4157 0.1 0 153 101
-9.25593 -3.03881 7.98784 0.1 0 180 74
6.21036 -0.380457 3.47722 0.1 0 34 220
12.3559 -1.49452 10.8912 0.1 75 179 0
-4.45559 -9.57399 1.29034 0.1 0 225 29
-5.49638 6.55184 10.8735 0.1 0 126 128
10.097 -6.47717 2.30161 0.1 49 205 0
5.95493 -1.22688 1.44976 0.1 0 32 222
1.82404 7.39022 5.8244 0.1 0 87 167
-7.8998 4.18102 2.00036 0.1 0 148 106
12.5065 -0.580352 14.5405 0.1 79 175 0
8.53666 -8.15229 2.41707 0.1 39 215 0
-9.42987 -1.94318 6.86796 0.1 0 174 80
-2.7462 14.0644 16.6578 0.1 219 35 0
-3.59963 13.9325 1.23659 0.1 225 29 0
-5.7551 13.3569 13.432 0.1 231 23 0
-0.564179 -10.9294 0.512119 0.1 0 245 9
11.8681 5.26624 13.5879 0.1 117 137 0
3.86305 6.18938 2.88786 0.1 0 77 177
4.33575 13.1202 3.27029 0.1 172 82 0
-9.36937 -2.42458 0.66288 0.1 0 177 77
7.20286 11.51 13.9797 0.1 157 97 0
0.495822 14.0933 13.4213 0.1 196 58 0
10.2877 8.34702 0.619738 0.1 131 123 0
-6.62967 5.66136 9.85061 0.1 0 132 122
9.61057 -7.07175 12.0108 0.1 45 209 0
5.98806 3.15419 4.49897 0.1 0 54 200
5.78195 -1.63253 1.71907 0.1 0 30 224
11.6984 -3.67483 16.0435 0.1 64 190 0
7.71016 -8.8188 16.4249 0.1 33 221 0
-8.9746 2.03309 12.4686 0.1 0 156 98
-3.73845 7.43279 10.3175 0.1 0 117 137
12.533 -0.355663 5.85172 0.1 81 173 0
-3.68469 13.9165 12.7142 0.1 221 33 0
2.13352 13.8203 15.5042 0.1 184 70 0
5.41145 4.38332 14.225 0.1 0 62 192
-2.80322 14.0572 8.55447 0.1 218 36 0
6.17856 -0.515154 8.0523 0.1 0 30 224
-1.05124 7.91651 9.45625 0.1 0 103 151
6.32848 0.347242 8.85424 0.1 0 37 217
-4.12212 -9.76132 11.721 0.1 0 227 27
12.3252 -1.64109 9.53896 0.1 74 180 0
4.2031 5.88767 0.903463 0.1 0 75 179
-2.95704 -10.2999 0.265824 0.1 0 233 21
-7.25558 5.01487 12.6075 0.1 0 137 117
12.3509 -1.51898 16.2717 0.1 73 181 0
1.44701 -11.0315 15.8411 0.1 2 252 0
0.578934 -11.0328 1.25705 0.1 0 251 3
-8.81748 -4.49254 11.6579 0.1 0 187 67
1.7217 13.9078 7.98583 0.1 187 67 0
-6.27474 13.1629 5.50856 0.1 237 17 0
-6.96722 -7.51527 14.1423 0.1 0 207 47
-4.75853 6.98518 13.0793 0.1 0 123 131
-5.83755 13.3276 14.8096 0.1 233 21 0
12.5754 0.121097 11.4588 0.1 86 168 0
12.5246 -0.430648 2.68808 0.1 80 174 0
11.2554 6.71057 14.6482 0.1 123 131 0
-1.48698 7.9013 0.603729 0.1 0 108 146
-4.72767 13.6759 0.319611 0.1 230 24 0
-1.03514 7.91661 9.32905 0.1 0 103 151
5.10179 4.85692 12.5964 0.1 0 64 190
12.2333 4.04897 16.6523 0.1 108 146 0
5.19715 -10.2205 3.23714 0.1 19 235 0
-9.49629 11.3934 7.19304 0.1 253 1 0
-0.694526 -10.9099 12.5857 0.1 0 244 10
12.5736 0.095931 10.2708 0.1 84 170 0
6.34805 -9.68019 16.4838 0.1 25 229 0
6.3537 1.29335 9.33022 0.1 0 42 212
9.79638 9.01039 3.06128 0.1 136 118 0
-3.79802 13.8943 13.4319 0.1 222 32 0
-8.37036 3.40919 8.65115 0.1 0 149 105
4.64128 12.9897 1.60109 0.1 179 75 0
5.60745 12.5174 15.4352 0.1 165 89 0
-0.746158 7.9129 16.4176 0.1 0 104 150
4.67767 -3.22209 6.55083 0.1 0 17 237
7.82439 11.0258 4.95162 0.1 156 98 0
0.0469436 7.84786 13.4818 0.1 0 97 157
5.87636 3.44949 11.4718 0.1 0 56 198
2.24273 13.7949 13.212 0.1 184 70 0
12.4143 3.19146 2.86627 0.1 103 151 0
-6.81481 -7.68318 2.88973 0.1 0 209 45
3.28229 -4.25011 10.0037 0.1 0 8 246
2.82865 -4.45601 11.1471 0.1 0 5 249
-4.14548 7.27361 5.22331 0.1 0 119 135
-1.74289 -10.6929 7.01762 0.1 0 238 16
-9.45568 -1.63503 12.4832 0.1 0 174 80
3.45115 13.4503 12.9141 0.1 177 77 0
4.41066 5.68329 9.53587 0.1 0 68 186
0.0164959 14.136 9.97293 0.1 198 56 0
7.67721 11.1458 7.20785 0.1 154 100 0
12.592 1.5903 3.59574 0.1 94 160 0
3.97477 13.2632 10.4797 0.1 173 81 0
7.90766 10.9564 5.96186 0.1 156 98 0
2.70378 13.6773 7.46503 0.1 180 74 0
-9.25173 -3.05794 13.9245 0.1 0 182 72
5.39557 -2.32705 6.81198 0.1 0 22 232
10.7311 -5.56451 10.5862 0.1 56 198 0
-3.72268 7.43847 14.6053 0.1 0 119 135
9.84582 8.94741 0.616302 0.1 135 119 0
0.712056 -11.0371 9.69473 0.1 0 249 5
-8.1063 3.86371 15.6784 0.1 0 149 105
-9.45916 -0.409099 16.6615 0.1 0 166 88
12.3915 3.31802 2.85117 0.1 103 151 0
-2.06128 14.1325 13.2693 0.1 212 42 0
-9.36774 0.438524 7.29026 0.1 0 161 93
-4.36376 -9.62717 13.5021 0.1 0 227 27
11.6936 5.73004 9.95575 0.1 117 137 0
5.17579 -10.2291 3.47597 0.1 19 235 0
2.89208 13.6244 3.9077 0.1 181 73 0
-1.86141 14.1461 4.07793 0.1 210 44 0
-5.62247 -8.78005 7.74966 0.1 0 216 38
12.4077 -1.22451 7.79336 0.1 77 177 0
11.1352 -4.87111 8.05798 0.1 60 194 0
-3.80144 7.40976 16.6155 0.1 0 119 135
-9.47674 -1.09679 16.2691 0.1 0 170 84
4.29122 -3.57927 8.19533 0.1 0 14 240
4.39033 5.70405 4.4994 0.1 0 71 183
12.553 -0.155297 8.81689 0.1 85 169 0
-3.99604 13.8532 3.16135 0.1 226 28 0
-4.70936 -9.42045 15.1298 0.1 0 223 31
12.0473 4.72306 15.7054 0.1 109 145 0
-1.6901 14.1555 7.55298 0.1 214 40 0
5.1 -2.74118 14.5001 0.1 0 22 232
-9.40148 -2.19358 13.7835 0.1 0 178 76
-5.48968 -8.8825 5.09383 0.1 0 216 38
5.60288 4.04081 9.73793 0.1 0 58 196
6.16094 2.5817 9.27445 0.1 0 50 204
-5.86494 6.29534 2.35155 0.1 0 131 123
0.971013 7.66675 15.4701 0.1 0 94 160
3.66743 6.34656 7.90545 0.1 0 75 179
-7.99884 12.3475 14.5993 0.1 241 13 0
2.02276 7.30928 2.6708 0.1 0 87 167
2.05021 -10.9904 5.07475 0.1 4 250 0
-10.2955 10.7709 15.2405 0.1 253 1 0
-7.81788 4.29917 14.5523 0.1 0 146 108
4.99297 12.8286 5.46891 0.1 171 83 0
-2.0375 7.84782 7.56657 0.1 0 108 146
5.58322 12.5304 11.1937 0.1 167 87 0
-4.81657 -9.35259 3.36018 0.1 0 223 31
-4.30638 13.7829 13.318 0.1 225 29 0
1.44701 -11.0315 7.7833 0.1 2 252 0
-8.30637 12.1718 2.0736 0.1 243 11 0
-3.3725 13.9728 2.26688 0.1 221 33 0
-7.28551 -7.13872 10.9759 0.1 0 202 52
7.71945 11.1118 12.932 0.1 154 100 0
1.35773 -11.0348 16.4872 0.1 1 253 0
-8.3999 -5.42233 14.8911 0.1 0 194 60
5.50322 -2.15469 8.75067 0.1 0 23 231
-7.18799 12.7654 4.63452 0.1 239 15 0
-2.31824 14.1108 12.3212 0.1 214 40 0
-3.47147 -10.0831 6.76419 0.1 0 230 24
2.1396 -10.9815 2.26581 0.1 5 249 0
4.89601 5.13084 13.3272 0.1 0 67 187
10.213 -6.32322 1.24744 0.1 52 202 0
-5.79495 6.34629 11.9834 0.1 0 128 126
6.59216 -9.54481 3.469 0.1 26 228 0
-4.86389 6.92934 1.3806 0.1 0 125 129
12.3573 3.49498 14.1818 0.1 105 149 0
1.89536 7.36193 8.30395 0.1 0 86 168
8.05192 10.8334 10.7065 0.1 149 105 0
-8.6006 -5.0072 10.5563 0.1 0 190 64
-3.03826 7.6508 5.12986 0.1 0 113 141
12.4895 2.70946 3.76155 0.1 99 155 0
4.69184 12.9673 4.09434 0.1 171 83 0
11.9849 4.92128 8.52716 0.1 112 142 0
-3.82633 13.8886 6.07579 0.1 223 31 0
7.93579 -8.64892 3.40282 0.1 34 220 0
5.78442 3.66546 1.05367 0.1 0 60 194
0.773967 7.71528 2.77493 0.1 0 92 162
11.7076 -3.65202 12.1453 0.1 66 188 0
9.70449 -6.96291 15.5843 0.1 46 208 0
-3.3102 7.57425 3.10447 0.1 0 116 138
-1.32536 7.90973 4.00884 0.1 0 106 148
-0.585929 -10.9263 11.0856 0.1 0 246 8
8.47324 10.4531 1.57037 0.1 145 109 0
-6.11907 -8.36477 0.722158 0.1 0 213 41
1.38982 13.969 12.7806 0.1 191 63 0
3.34051 -4.21983 5.40895 0.1 0 10 244
2.16194 -10.9792 11.3595 0.1 6 248 0
-7.16147 12.778 1.53285 0.1 240 14 0
-8.51582 -5.1886 10.9851 0.1 0 191 63
-3.99033 -9.83104 12.9474 0.1 0 229 25
-9.47255 -0.694842 0.184995 0.1 0 167 87
6.06205 -0.923541 10.6742 0.1 0 31 223
-5.25758 13.5218 7.62517 0.1 229 25 0
0.580125 14.0841 13.223 0.1 196 58 0
2.13493 7.26063 11.5715 0.1 0 84 170
4.81077 -10.3683 6.21787 0.1 16 238 0
-9.453 -1.67354 14.0988 0.1 0 175 79
4.02518 -3.78902 0.110853 0.1 0 17 237
6.25134 -0.182499 6.26515 0.1 0 35 219
-9.33157 -2.65529 3.03182 0.1 0 180 74
11.1352 -4.87111 10.6309 0.1 59 195 0
-1.20505 14.1709 11.5813 0.1 207 47 0
-5.52305 -8.85707 4.6489 0.1 0 218 36
-3.48527 7.51956 14.9575 0.1 0 117 137
6.08458 -0.852396 2.94945 0.1 0 32 222
2.65317 -10.9162 7.82226 0.1 6 248 0
-8.00324 -6.12489 12.5201 0.1 0 197 57
11.9929 4.89654 11.1062 0.1 115 139 0
12.564 -0.0297844 15.9142 0.1 81 173 0
11.7531 -3.53765 4.46043 0.1 66 188 0
1.02336 -11.0407 2.47133 0.1 0 253 1
12.6056 0.904478 2.8108 0.1 90 164 0
2.27365 -10.9668 10.8731 0.1 5 249 0
6.4501 -9.62453 1.99824 0.1 25 229 0
6.29609 1.89815 0.289911 0.1 0 51 203
1.40236 -11.0332 13.1474 0.1 1 253 0
5.25527 -2.53331 0.646969 0.1 0 25 229
6.23525 2.25356 2.68603 0.1 0 51 204
5.04278 12.8048 12.259 0.1 169 85 0
-2.11849 7.8367 13.2933 0.1 0 110 144
3.88565 6.1705 4.65625 0.1 0 76 178
-2.5727 -10.4417 7.44319 0.1 0 234 20
-8.64155 -4.916 3.33331 0.1 0 191 63
12.5034 -0.605267 15.4267 0.1 78 176 0
1.78204 -11.0127 1.27235 0.1 3 251 0
7.94907 10.9215 13.1737 0.1 151 103 0
10.4925 -5.92943 10.4548 0.1 54 200 0
0.358898 7.79975 3.55335 0.1 0 95 159
-7.56169 4.64421 3.06969 0.1 0 143 111
7.28732 -9.11504 12.9655 0.1 31 223 0
-7.12883 -7.3287 10.9533 0.1 0 205 49
-2.37533 14.1054 0.936127 0.1 220 34 0
1.77681 13.8969 9.32336 0.1 186 68 0
-5.167 -9.1177 15.8678 0.1 0 222 32
6.219 2.33244 8.3727 0.1 0 45 209
3.5829 13.4055 6.52502 0.1 176 78 0
-9.43902 -1.84687 2.61617 0.1 0 177 77
6.22384 -0.318848 12.1552 0.1 0 33 221
11.2039 -4.74182 15.6677 0.1 59 195 0
8.29481 10.6181 3.78596 0.1 148 106 0
-8.6088 2.93698 10.319 0.1 0 153 101
-5.67178 -8.74113 15.2799 0.1 0 218 36
6.21582 -0.355842 7.95976 0.1 0 31 223
-4.38218 -9.61661 1.46883 0.1 0 226 28
12.2637 3.92339 8.88601 0.1 107 147 0
-0.749352 14.1702 5.35921 0.1 205 49 0
8.49287 10.4346 2.92833 0.1 146 108 0
11.8578 -3.26095 13.1741 0.1 68 186 0
-1.03514 7.91661 13.8064 0.1 0 105 149
0.0469436 7.84786 12.4946 0.1 0 96 158
1.83186 13.8857 14.6712 0.1 186 68 0
6.24804 2.18779 12.4772 0.1 0 48 206
-7.65956 4.5165 8.61279 0.1 0 142 112
-7.83853 4.26978 6.46418 0.1 0 145 109
1.13473 -11.0398 6.08376 0.1 0 253 1
1.0679 -11.0405 10.7344 0.1 0 254 0
4.30806 5.7864 6.45817 0.1 0 72 182
1.38785 -4.79728 14.0914 0.1 0 0 254
-4.15956 -9.74107 12.1286 0.1 0 227 27
-10.0412 10.9786 9.7163 0.1 252 2 0
4.43089 5.66245 15.7604 0.1 0 72 182
-9.1494 -3.47756 14.2647 0.1 0 185 69
-2.79604 -10.3614 3.7472 0.1 0 234 20
-1.98891 7.85409 3.12833 0.1 0 109 145
12.4752 2.81105 12.6284 0.1 102 152 0
-4.41893 -9.59537 6.02967 0.1 0 223 31
-2.03273 14.1346 13.7559 0.1 212 42 0
6.19274 2.45062 0.690105 0.1 0 53 201
-8.53452 12.0351 9.15104 0.1 244 10 0
11.7975 -3.42273 8.99147 0.1 67 187 0
-7.05362 5.23834 9.76662 0.1 0 135 119
6.77338 -9.43924 15.3987 0.1 28 226 0
-0.294933 14.1549 9.45877 0.1 200 54 0
-1.8043 14.1494 11.622 0.1 210 44 0
10.0382 -6.55336 4.70171 0.1 50 204 0
3.10623 -4.33623 12.0069 0.1 0 8 246
-8.1536 3.78667 10.8397 0.1 0 148 106
-0.664037 14.1684 1.22328 0.1 208 46 0
9.09935 9.82313 5.79221 0.1 143 111 0
-5.7809 6.35639 3.28442 0.1 0 129 125
4.99216 5.00632 6.33428 0.1 0 65 189
2.25131 -10.9694 9.5509 0.1 6 248 0
-0.975591 -10.8623 3.48012 0.1 0 244 10
-0.153263 14.1472 13.7987 0.1 200 54 0
7.0038 11.6532 9.32981 0.1 158 96 0
-6.98088 -7.49986 14.7075 0.1 0 208 46
-2.01544 -10.6184 15.7185 0.1 0 237 17
3.39287 6.54934 9.93783 0.1 0 78 176
12.0008 4.8718 3.84413 0.1 113 141 0
12.3771 3.3939 8.16456 0.1 104 150 0
6.23163 -0.28177 1.61729 0.1 0 37 217
-7.99256 -6.1421 9.79697 0.1 0 197 57
-0.458784 7.89869 6.26956 0.1 0 99 155
-3.00267 14.0303 15.5571 0.1 217 37 0
-1.54738 14.1617 3.98938 0.1 208 46 0
4.36898 -3.51273 0.863702 0.1 0 19 235
4.89303 12.8756 13.5563 0.1 171 83 0
12.602 1.31064 16.122 0.1 90 164 0
11.6936 5.73004 13.1565 0.1 118 136 0
-7.10176 5.18647 6.22948 0.1 0 137 117
-2.23259 14.1186 0.0406879 0.1 220 34 0
6.11545 2.75167 3.4891 0.1 0 52 202
2.29723 13.7819 13.6762 0.1 183 71 0
-5.21863 -9.08133 10.7992 0.1 0 220 34
-5.17422 13.5475 8.39672 0.1 230 24 0
9.00739 9.92104 2.31216 0.1 142 112 0
-2.42942 -10.4904 0.314248 0.1 0 236 18
-7.60545 4.5877 8.62198 0.1 0 142 112
3.29843 -10.7995 8.90049 0.1 12 242 0
-9.02163 1.89253 15.845 0.1 0 159 95
5.23981 -10.2032 15.6638 0.1 19 235 0
6.89328 -9.36694 10.6477 0.1 31 223 0
-8.03506 -6.07314 10.2244 0.1 0 196 58
2.6768 13.6847 15.1925 0.1 181 73 0
-9.49629 11.3934 12.1121 0.1 248 6 0
0.986089 7.66281 3.93529 0.1 0 93 161
-1.88997 -10.6537 7.2093 0.1 0 237 17
10.3125 -6.18682 0.717566 0.1 51 204 0
8.11317 10.7801 11.8598 0.1 149 105 0
-1.97562 14.1386 8.07331 0.1 213 41 0
0.972265 14.0344 4.5612 0.1 193 61 0
12.5029 2.60783 15.4495 0.1 98 156 0
0.636276 14.0776 1.50251 0.1 203 51 0
8.5189 -8.16796 1.09638 0.1 37 217 0
1.88689 -4.72949 5.17281 0.1 0 2 252
-7.77626 4.35766 1.5124 0.1 0 146 108
4.81313 -3.07954 8.29836 0.1 0 18 236
6.69304 -9.48659 9.39516 0.1 30 224 0
2.46511 7.10448 13.3137 0.1 0 85 169
-4.6436 13.6983 11.7088 0.1 228 26 0
5.36381 12.6454 4.94868 0.1 169 85 0
-3.40579 7.54493 4.69036 0.1 0 115 139
-5.1761 6.75234 8.09201 0.1 0 125 129
-0.236738 -10.9714 6.1528 0.1 0 247 7
11.6347 5.87536 3.50849 0.1 119 135 0
-3.89569 7.37423 1.00678 0.1 0 120 134
6.75333 -9.45114 14.4334 0.1 27 227 0
-4.40816 7.15744 6.52912 0.1 0 121 133
8.89565 10.0374 2.10065 0.1 143 111 0
-7.61633 4.57351 4.0007 0.1 0 139 115
9.22293 -7.49446 6.39578 0.1 43 211 0
3.38068 6.55789 13.2833 0.1 0 81 173
4.71708 12.956 0.174799 0.1 187 67 0
-9.44699 -0.238323 15.6942 0.1 0 165 89
-5.65537 -8.75413 16.0251 0.1 0 219 35
6.3537 1.29335 1.25472 0.1 0 46 208
6.19627 -0.44183 16.2273 0.1 0 36 218
7.0038 11.6532 14.0654 0.1 159 95 0
-4.63737 -9.46501 14.2727 0.1 0 224 30
-6.71573 -7.78843 2.09749 0.1 0 211 43
2.81149 13.6474 9.66286 0.1 179 75 0
11.5841 -3.94677 6.4417 0.1 66 188 0
5.81011 -9.95215 4.82201 0.1 22 232 0
12.4359 3.06476 6.137 0.1 100 154 0
5.33642 -2.41636 16.2468 0.1 0 26 228
11.574 6.02008 5.51337 0.1 121 133 0
-5.11857 13.5644 4.54681 0.1 228 26 0
-2.87764 7.6913 15.1674 0.1 0 114 140
1.64216 -4.7692 6.36006 0.1 0 1 253
11.4254 6.35536 5.98506 0.1 122 132 0
-3.92704 7.36211 10.6468 0.1 0 117 137
11.8912 -3.16804 1.3442 0.1 67 187 0
-8.63521 11.9729 12.1821 0.1 244 10 0
1.66254 -4.76637 3.2141 0.1 0 0 255
-1.77833 7.87777 11.7124 0.1 0 106 148
-4.88752 -9.30668 5.80191 0.1 0 222 32
11.76 5.55979 8.82176 0.1 116 138 0
1.72357 7.42867 0.510042 0.1 0 91 163
-4.77362 6.9773 8.28726 0.1 0 123 131
12.4359 3.06476 14.9743 0.1 102 153 0
12.5215 2.4553 7.64645 0.1 99 155 0
-6.38187 5.88338 5.90887 0.1 0 132 122
-6.16558 -8.32309 5.20529 0.1 0 212 42
7.99033 10.8864 14.5688 0.1 151 103 0
8.26722 -8.38332 10.3067 0.1 39 215 0
-6.04094 -8.43368 8.45513 0.1 0 213 41
8.09279 10.7979 6.72985 0.1 153 101 0
-5.97789 -8.48827 1.59973 0.1 0 214 40
12.5868 1.69205 0.0702541 0.1 95 159 0
12.6056 0.904478 1.16021 0.1 88 166 0
4.18033 -10.5758 15.6109 0.1 14 240 0
-3.85739 -9.89899 11.6747 0.1 0 228 26
-8.97911 -4.04458 14.7363 0.1 0 187 67
-0.35165 14.1576 3.99062 0.1 202 52 0
-9.38071 -2.3476 9.48912 0.1 0 176 78
4.81505 5.23138 10.6993 0.1 0 64 190
-4.37742 7.1716 8.86193 0.1 0 120 134
11.9278 5.09408 10.724 0.1 115 139 0
-4.50327 13.7346 4.57818 0.1 226 28 0
4.45419 -3.43687 3.30374 0.1 0 13 241
6.0186 -1.05288 4.81973 0.1 0 27 227
-1.50315 7.90027 12.9573 0.1 0 106 148
-0.315821 7.88768 5.94829 0.1 0 97 157
-8.70706 2.71993 6.70015 0.1 0 154 100
11.1962 6.828 1.47496 0.1 122 132 0
1.55602 13.9394 10.7233 0.1 190 64 0
0.203361 7.82536 9.8341 0.1 0 95 159
6.3071 -9.70215 12.7006 0.1 25 229 0
9.52593 9.34161 1.5803 0.1 137 117 0
9.61057 -7.07175 2.53151 0.1 45 209 0
11.1843 6.85142 15.2211 0.1 123 131 0
9.78181 -6.87127 2.56295 0.1 46 208 0
6.77338 -9.43924 8.26659 0.1 30 224 0
11.8939 5.19254 6.49001 0.1 115 139 0
-9.39211 0.27036 9.99281 0.1 0 162 92
1.08389 14.0182 9.53078 0.1 191 63 0
10.6922 -5.626 1.84589 0.1 55 199 0
4.66612 5.40698 6.38458 0.1 0 69 185
11.7318 5.63285 15.043 0.1 116 138 0
1.65235 -4.76779 7.52709 0.1 0 0 254
7.46169 -8.99625 15.1047 0.1 32 222 0
-0.79422 7.91425 3.169 0.1 0 103 151
-7.16847 -7.28152 6.9193 0.1 0 203 51
2.03985 -4.69829 4.83243 0.1 0 2 252
3.09472 6.74822 6.62749 0.1 0 81 173
12.5739 1.8956 13.4062 0.1 97 157 0
-7.59455 4.60187 2.32117 0.1 0 145 109
-6.49165 13.0752 9.03913 0.1 238 16 0
8.98827 -7.73147 14.6297 0.1 41 213 0
6.22646 -0.306498 12.6139 0.1 0 33 221
5.60288 4.04081 3.57923 0.1 0 59 195
0.29123 -11.0182 14.744 0.1 0 248 6
-5.25758 13.5218 2.87964 0.1 232 22 0
1.67033 -11.0201 10.2485 0.1 2 252 0
1.13963 14.0097 11.7271 0.1 192 62 0
0.242385 14.1179 6.6949 0.1 197 57 0
12.2227 -2.07761 3.45614 0.1 72 182 0
-1.88996 14.1443 9.65414 0.1 209 45 0
0.667083 7.7393 6.26476 0.1 0 94 160
8.42964 -8.24575 4.34511 0.1 38 216 0
0.845362 -11.0397 9.90374 0.1 0 251 3
2.41603 -4.60013 10.9136 0.1 0 3 251
-5.7826 13.3472 1.42048 0.1 235 19 0
5.84271 -1.49927 15.2798 0.1 0 29 225
5.9505 -1.23838 11.3435 0.1 0 28 226
1.59333 7.4761 12.7794 0.1 0 88 166
-0.189198 7.87573 7.30711 0.1 0 97 157
6.219 2.33244 5.71527 0.1 0 51 203
-4.36376 -9.62717 7.15592 0.1 0 224 30
12.4963 2.65865 14.826 0.1 99 155 0
12.5097 -0.555427 14.861 0.1 79 175 0
-8.42183 3.3129 15.1911 0.1 0 151 103
-0.863175 14.1717 4.49 0.1 205 49 0
2.89833 -10.8765 15.2895 0.1 9 245 0
10.2114 8.45586 3.22042 0.1 133 121 0
7.46378 11.3138 2.03487 0.1 155 99 0
1.83186 13.8857 11.7362 0.1 185 69 0
12.5788 0.171452 11.0045 0.1 86 168 0
8.5011 -8.1836 1.21866 0.1 37 217 0
10.424 -6.02905 14.5809 0.1 53 201 0
-1.10465 -10.8378 2.2132 0.1 0 242 12
-7.12569 5.16036 12.4143 0.1 0 136 118
11.8767 5.24169 4.92458 0.1 115 139 0
4.83234 -10.3605 12.803 0.1 16 238 0
