845
0.137859328726 -1.92458944016 0.221583764794 0.1 0 254 0
-32.3942539987 6.23642521054 3.16284226027 0.1 0 96 158
39.0623271947 2.05199712309 1.4876118569 0.1 193 61 0
51.0673684984 0.0601816921812 1.17258796854 0.1 251 3 0
-43.6115089748 1.18760323921 1.73824695838 0.1 0 38 216
-0.604804631896 -1.55026994044 -0.200519782669 0.1 0 250 4
22.4390944077 4.76964296318 -0.952123072406 0.1 108 146 0
22.5919338746 -4.78766566421 2.0583666781 0.1 109 145 0
4.08320356701 9.2709507564 -2.03771839059 0.1 17 237 0
-15.5730217996 6.86214573147 0.786814060781 0.1 0 179 75
50.2910424275 0.13069097785 1.31323242673 0.1 248 6 0
30.7625347329 1.86532813268 0.803482346845 0.1 150 104 0
31.2503858847 -3.20227003526 0.986838876338 0.1 154 100 0
-5.35480149301 4.41288094954 1.16785501288 0.1 0 229 25
-27.0326634508 -0.179130198043 -0.123971734988 0.1 0 124 130
8.40206684522 3.48945287555 -3.75134341336 0.1 39 215 0
-7.55046778535 -7.34033605615 0.109219673588 0.1 0 218 36
5.84039594018 4.19770085236 -3.29774247076 0.1 26 228 0
31.6473819396 0.180162532131 1.1531298164 0.1 157 97 0
28.5459912529 -6.56308205306 0.867130175723 0.1 137 117 0
30.2209593403 1.97899021156 1.0486322311 0.1 145 109 0
-19.447384659 -7.57640487312 0.171280632278 0.1 0 160 94
-0.681158483126 9.36573778483 -0.375936901207 0.1 0 250 4
-34.7692394772 8.80977109137 1.59542242917 0.1 0 85 169
-17.9800028407 -7.08730063527 -0.215825043997 0.1 0 164 90
-37.5644767213 -3.00165665672 -0.937935941757 0.1 0 70 184
-11.4689747321 4.10207039359 1.90723149583 0.1 0 197 57
28.6340092815 2.01141771268 1.12329217683 0.1 138 116 0
30.0128565983 -6.05965653812 2.22384048742 0.1 144 110 0
30.994291312 -0.48686345586 0.122743645121 0.1 152 102 0
-7.14169693886 -4.93051491022 -1.07329331698 0.1 0 221 33
-23.2076548154 -4.22114397509 -3.47416187458 0.1 0 143 111
4.8544964568 5.96063777436 -1.01646472235 0.1 21 233 0
40.3791261636 -7.05603457125 2.48103499846 0.1 201 53 0
30.5012638961 3.45538049001 -0.0959271851249 0.1 146 108 0
30.6744821761 -6.88182837533 1.99309075242 0.1 148 106 0
23.1219293528 -8.29228642451 1.01861629936 0.1 111 143 0
45.7025783585 -4.33114688197 1.18492737034 0.1 231 23 0
-16.4257978182 -3.38553652063 -2.12848944048 0.1 0 173 81
-33.0651281877 6.83492014603 3.03858817424 0.1 0 93 161
-41.6258490785 -4.96870425888 0.261359552294 0.1 0 50 204
1.79111813592 5.86435311195 -0.467017118301 0.1 9 245 0
-0.129689215014 -1.38060700531 -0.182463001612 0.1 0 253 1
-33.4323704225 2.54352217979 1.99072253505 0.1 0 92 162
-35.7565787624 -8.70185395361 -3.60867737594 0.1 0 81 173
17.0179987362 -7.44896121123 1.04937501144 0.1 76 178 0
-7.69310326423 0.426921958962 -0.0923096786174 0.1 0 217 37
25.9439541227 1.23981928562 0.150825524374 0.1 125 129 0
3.63604856198 3.89464237429 -2.35696343971 0.1 15 239 0
0.664451793461 -5.40603390979 -0.0356214321989 0.1 3 251 0
-26.0514227234 -2.28619049801 -0.549645844504 0.1 0 128 126
27.4042878385 0.221629124134 1.16064670265 0.1 133 121 0
-50.3033994635 -4.33491011306 -2.84430746377 0.1 0 5 249
-51.4958830279 5.82741235253 4.06535059915 0.1 0 0 254
46.012096276 -3.80730855202 1.43575923308 0.1 232 22 0
-1.77101715817 2.46224628797 -0.261147576091 0.1 0 245 9
32.0877871199 -0.718441099722 -0.316392471161 0.1 159 95 0
31.0263835717 -0.634889837785 -0.146378743763 0.1 152 102 0
39.1642681257 0.794291931741 2.17443827965 0.1 194 60 0
10.0872853035 -3.91972504607 1.3888189876 0.1 46 208 0
17.2201326559 6.82129991631 -2.18122882124 0.1 77 177 0
-23.1638846124 -7.55132862066 -1.33548781319 0.1 0 143 111
18.7351932891 -1.99616597967 2.43548427393 0.1 87 167 0
10.6135178895 0.152170731211 0.760625108318 0.1 49 205 0
24.6484048557 -5.6364687936 1.78182836294 0.1 120 134 0
-37.0204794516 -4.23419197675 -1.03976750268 0.1 0 74 180
-9.77350220502 4.04432992525 1.61394259504 0.1 0 206 48
47.7455569561 4.82186232258 -0.882915866314 0.1 239 15 0
18.4732936457 -0.147337279719 1.21406773721 0.1 85 169 0
50.0451070457 6.25512340382 -1.97040967481 0.1 247 7 0
-19.512018093 -2.21556199937 -1.31943563798 0.1 0 160 94
17.3006219255 -3.20669448527 3.23565119333 0.1 77 177 0
14.0829802608 8.65105164648 -2.58028823354 0.1 66 188 0
-18.8205157858 6.30351467414 1.31373826642 0.1 0 161 93
-49.0759858013 -1.15652573916 -0.0858045247838 0.1 0 11 243
11.1362887176 6.7313086968 -2.30870154619 0.1 53 201 0
-47.9342814624 1.81291105416 1.92932120816 0.1 0 18 236
-16.3439009505 2.47736303901 2.36477075271 0.1 0 174 80
38.2629660162 -1.40815204998 -1.34699071292 0.1 189 65 0
-33.5662219003 -7.219520161 -4.01732432818 0.1 0 91 163
1.39465719559 1.4590513358 -1.14580994453 0.1 7 247 0
-29.6651040818 -2.26229667236 -1.22619674836 0.1 0 112 142
-27.3606642704 -5.81303156684 -2.87057019943 0.1 0 122 132
50.9524741486 -1.08356914602 1.00882791591 0.1 250 4 0
-49.5863025797 8.87457824042 4.18628544898 0.1 0 9 245
37.8936008697 -0.582999179137 -0.184144925768 0.1 185 69 0
31.5343069622 -6.76299568943 2.45694341051 0.1 156 98 0
40.5475414165 -3.51410568984 1.11887421975 0.1 202 52 0
6.1786824283 -2.40233868294 -0.73772195088 0.1 28 226 0
30.6522703719 -3.03752473539 1.04654434482 0.1 148 106 0
-47.7141753112 -4.40169427048 -2.41557394587 0.1 0 18 236
-42.4978404238 1.16087487036 1.75063719761 0.1 0 44 210
-9.22187670359 -5.61840414852 -0.862241237311 0.1 0 208 46
-15.6277509435 2.73112029096 1.96572235237 0.1 0 178 76
-37.9131443465 -4.65990828282 -1.08373846666 0.1 0 68 186
42.560678071 -6.36716260122 2.22709503961 0.1 214 40 0
19.3088955641 -1.73131710391 2.36078741643 0.1 91 163 0
15.1797325064 6.27379249737 -1.90366353453 0.1 70 184 0
39.6161529468 -5.81057317802 2.69005091039 0.1 197 57 0
-47.6585017661 9.39083730205 3.23141392054 0.1 0 19 235
49.9976657061 0.055936430908 1.16404922236 0.1 247 7 0
-12.0148440074 -1.64175834457 -0.76615325214 0.1 0 194 60
2.67121436507 -1.9829132004 0.298127031945 0.1 13 241 0
-13.5750228005 4.42556274228 0.862879938694 0.1 0 187 67
50.8165489108 -4.48473255389 1.01610020464 0.1 250 4 0
-30.6475457038 -4.30694010303 -2.32912989495 0.1 0 107 147
38.5673938091 -7.47470559134 2.16529527388 0.1 190 64 0
-22.2812051334 0.337758215263 2.02713012581 0.1 0 148 106
-3.41998531395 7.97963436201 -0.669936154691 0.1 0 237 17
-42.991703173 4.13717281559 3.90468596852 0.1 0 42 212
-41.3970706997 -4.27522946269 -1.64719001979 0.1 0 51 203
-20.5702900887 6.625792829 1.15935728459 0.1 0 156 98
38.2084947836 -7.53416493702 2.16636069102 0.1 188 66 0
17.7147083012 -0.84321965755 0.707223428735 0.1 80 174 0
45.5397851192 8.94021110001 -4.08008307941 0.1 229 25 0
24.7445182701 -4.49559930766 2.71856440369 0.1 120 134 0
10.4688229553 -4.82926156714 1.40883919241 0.1 48 206 0
-10.9214964424 -5.29910545675 -1.54267619133 0.1 0 199 55
-16.6908720237 6.19745290562 1.3168418508 0.1 0 172 82
-32.5814741464 -1.10837626231 -0.611768553074 0.1 0 95 159
14.9300280523 -7.54888185002 0.206606026128 0.1 69 185 0
-17.359880054 6.78908318701 0.995774524251 0.1 0 169 85
16.5895755781 -7.68819195204 0.536393438259 0.1 75 179 0
29.6204868345 -8.7096470635 1.26043684285 0.1 143 111 0
-46.1314463924 1.0485479424 1.83915659549 0.1 0 25 229
-8.96000467708 3.83544920303 1.78449524943 0.1 0 211 43
21.7366366746 3.31893722894 -0.476911735077 0.1 104 150 0
-39.4672177871 -8.50233435157 -4.64423368328 0.1 0 60 194
-39.7737281274 0.0242156620992 0.487669915691 0.1 0 59 195
-29.858910864 -3.69899314079 -1.87168952466 0.1 0 110 144
6.50420271241 -6.70334010535 0.250003212934 0.1 30 224 0
-2.70433297203 -0.852579964757 0.353196557422 0.1 0 240 14
28.5730548638 -6.30494806145 1.3042875206 0.1 138 116 0
9.69564871111 -0.586195395638 1.53840164635 0.1 44 210 0
-51.1469852149 1.94198479226 1.82128480432 0.1 0 1 253
-27.4343443948 0.346310675994 0.250616574918 0.1 0 121 133
36.2764893077 9.2964779258 -4.08289283312 0.1 176 78 0
-16.7805970543 -1.71651327218 -0.769555557624 0.1 0 171 83
-0.742316201216 4.68446623706 -1.26606200651 0.1 0 249 5
33.2125512867 -1.96098856975 0.357991163478 0.1 162 92 0
-8.74887169148 7.2338587404 -0.554173007445 0.1 0 212 42
-29.9794895785 7.61022866487 2.37632138152 0.1 0 110 144
-10.0597806273 -2.71973071555 -0.0506442860375 0.1 0 203 51
36.5294407676 -5.26383056846 3.1042683989 0.1 178 76 0
-21.2881758353 5.72409738665 2.70239852937 0.1 0 153 101
-15.0725587074 -0.696465959762 -0.838898398253 0.1 0 180 74
-44.3325878114 -5.19825877685 -0.858237406734 0.1 0 34 220
16.877248166 2.87526967043 -0.764548983195 0.1 75 179 0
-6.00045383168 -5.99769811401 0.317528945011 0.1 0 225 29
-26.4618014767 2.22283834328 1.15613259746 0.1 0 126 128
10.5581983731 -7.10453019318 -0.0130780940587 0.1 49 205 0
-44.6714442714 -8.02614949147 -3.78490482541 0.1 0 32 222
-34.2623705647 -2.80857590006 -0.873843590219 0.1 0 87 167
-22.2672857755 -7.03537130503 -2.1784057735 0.1 0 148 106
17.466047878 7.89236596012 -4.07913371915 0.1 79 175 0
8.50050144026 -6.37924503098 1.0204175664 0.1 39 215 0
-16.2803373819 -1.64106175536 -0.760459793629 0.1 0 174 80
43.3033273242 8.78729206045 -3.6930032482 0.1 219 35 0
44.3331686744 -6.71956255273 1.94493736883 0.1 225 29 0
45.8632924856 5.36546381292 -1.7412222896 0.1 231 23 0
-1.75458558302 -7.03428375308 -0.00990763328208 0.1 0 245 9
24.0864239647 5.96281923291 -2.92423711495 0.1 117 137 0
-36.6775704657 -5.92271283608 -2.65081990883 0.1 0 77 177
35.3840483684 -6.48449882275 3.0876717475 0.1 172 82 0
-15.8312616562 -7.11196326661 1.13052023379 0.1 0 177 77
31.883041042 6.35126113409 -1.9235548339 0.1 157 97 0
39.4593659898 5.52183918964 -1.83817774377 0.1 196 58 0
27.0946239671 -8.40231152124 1.10895629861 0.1 131 123 0
-25.1049666449 1.97982774976 1.13795956451 0.1 0 132 122
9.92639143349 5.21854073051 -2.65782654339 0.1 45 209 0
-40.7499505255 -4.41307640263 -1.0477334305 0.1 0 54 200
-45.1623482903 -7.90798829873 -3.91226092173 0.1 0 30 224
13.903014587 8.69139215181 -2.41745922035 0.1 64 190 0
7.27803008766 9.27441899245 -2.92739796284 0.1 33 221 0
-20.7460958602 5.8637787579 2.70770141604 0.1 0 156 98
-28.5517734451 1.96492344637 1.20348530882 0.1 0 117 137
17.8146955159 -3.38751661045 3.05486068419 0.1 81 173 0
43.8235856852 4.04455604144 -0.416398859148 0.1 221 33 0
37.6811920591 8.77193117472 -4.3286027546 0.1 184 70 0
-39.0325679372 7.0075387506 3.31540065777 0.1 0 62 192
43.1162888748 0.179916674688 1.1606248592 0.1 218 36 0
-45.0693841257 0.820599463617 2.53367974444 0.1 0 30 224
-31.4131493343 0.399826604203 -0.261515156015 0.1 0 103 151
-43.8623191891 1.11060641767 1.93958874839 0.1 0 37 217
-5.82916221913 4.06421992257 0.985732017468 0.1 0 227 27
16.4876506909 1.70752052252 -0.773786640579 0.1 74 180 0
-36.7766790504 -8.34873152165 -3.68360039078 0.1 0 75 179
-4.26422330047 -7.1298276734 0.139207339178 0.1 0 233 21
-24.1189911213 5.45551809109 2.15108414834 0.1 0 137 117
16.2009606007 8.93410661024 -3.00497719327 0.1 73 181 0
0.348651497637 8.66517706529 0.365196785257 0.1 2 252 0
-0.382599236827 -6.61225033308 1.01226267227 0.1 0 251 3
-13.3105327182 4.1445673454 1.26896387017 0.1 0 187 67
38.1151839938 -0.275882155296 0.352505499972 0.1 187 67 0
46.8348607963 -2.9640489149 1.28427360515 0.1 237 17 0
-9.35532480257 6.6799391471 -0.374432302776 0.1 0 207 47
-27.2388679671 6.06210730261 3.09102253935 0.1 0 123 131
46.0786849061 8.66467169485 -4.72643397698 0.1 233 21 0
18.5678685598 3.00486310078 -0.442807630323 0.1 86 168 0
17.7482411345 -5.57606264109 0.583392022213 0.1 80 174 0
25.2898668123 8.21188020165 -4.58051917016 0.1 123 131 0
-30.3321687249 -8.32661484465 -2.85947633741 0.1 0 108 146
45.5687481258 -7.07615007067 1.51839068731 0.1 230 24 0
-31.3916589219 0.372355492439 -0.214464397828 0.1 0 103 151
-38.4868660744 6.16373248129 4.20203768297 0.1 0 64 190
22.2871197287 9.19918195106 -3.38941085825 0.1 108 146 0
4.34638369767 -5.34323458348 1.21111826917 0.1 19 235 0
51.2977921748 -2.39239047874 2.65387962423 0.1 253 1 0
-1.87657956463 4.80191635519 -0.963305908293 0.1 0 244 10
18.4438110897 2.02400753834 -0.731209557728 0.1 84 170 0
5.62252682876 9.23260659176 -2.47197564636 0.1 25 229 0
-42.8723043774 1.16794285797 1.49943597605 0.1 0 42 212
28.0204814806 -6.34624902781 1.13371293641 0.1 136 118 0
43.8781673464 6.04322023997 -2.59550857052 0.1 222 32 0
-22.1792615949 1.27982491271 2.37003433842 0.1 0 149 105
36.8566213162 -7.02940291698 2.65286263287 0.1 179 75 0
33.7885228304 8.60361025711 -4.58200325241 0.1 165 89 0
-31.2910985575 8.55514289 1.28272387659 0.1 0 104 150
-47.9479756036 -3.71705764397 -3.09778460406 0.1 0 17 237
31.4104611464 -4.00213877648 2.0930541375 0.1 156 98 0
-32.2022958636 6.26952932675 3.06899097386 0.1 0 97 157
-40.3512139476 4.14725892517 3.45254150469 0.1 0 56 198
37.6936055005 5.11113860521 -1.76877586031 0.1 184 70 0
21.5054767875 -6.09710778573 1.71054647457 0.1 103 151 0
-9.13714509825 -5.34302102534 -1.09679784609 0.1 0 209 45
-49.6675669211 1.82002698987 2.00651810497 0.1 0 8 246
-50.282748989 3.05653011086 3.30266756345 0.1 0 5 249
-28.079388914 -4.61907448494 -3.55128251118 0.1 0 119 135
-3.23372318436 -1.14949048081 -0.320710995739 0.1 0 238 16
-16.3112101669 4.81086943358 1.67569955245 0.1 0 174 80
36.4553930676 4.74649518074 -1.25064969813 0.1 177 77 0
-37.8375067192 1.52739907805 1.41756917272 0.1 0 68 186
39.8296330136 0.652696714705 1.96451913142 0.1 198 56 0
31.3060578798 -0.728989297381 -0.31078180356 0.1 154 100 0
19.8564732064 -5.3706041661 1.29720897117 0.1 94 160 0
35.7073684944 0.774451193886 2.15307031937 0.1 173 81 0
31.4614773072 -2.78703710408 1.58937083967 0.1 156 98 0
37.0171319509 -0.460874977117 0.0382136360602 0.1 180 74 0
-14.7453180228 6.50939558367 1.37727821191 0.1 0 182 72
-46.8242105855 -3.60415352326 -3.16562119333 0.1 0 22 232
11.9371566787 3.45530183168 -1.18250137189 0.1 56 198 0
-28.1141983887 7.41115097893 2.20248969301 0.1 0 119 135
27.8371152633 -8.52584517467 1.07176648332 0.1 135 119 0
-0.709251362688 1.83253971421 0.627063049882 0.1 0 249 5
-22.0472115527 7.86368131353 0.935030663851 0.1 0 149 105
-17.6052776447 8.20194255886 -0.415314900388 0.1 0 166 88
21.6098809437 -6.13628401185 1.78777675822 0.1 103 151 0
42.1249925827 5.31351763883 -1.39284505358 0.1 212 42 0
-18.7717520486 -1.84780505159 -1.02285850643 0.1 0 161 93
-5.82729198317 5.90726942992 -1.62131387243 0.1 0 227 27
24.188078194 1.60700468561 -0.577289656269 0.1 117 137 0
4.40446460676 -5.25867608349 1.4250182417 0.1 19 235 0
37.0542524075 -5.65911406441 2.96960900621 0.1 181 73 0
41.8671419711 -4.14475639292 1.39697039542 0.1 210 44 0
-7.7377049277 -0.953079186775 -0.866198125093 0.1 0 216 38
17.0262397127 -0.449894558653 0.578737087181 0.1 77 177 0
12.7205098936 -0.0499830057948 1.46773507108 0.1 60 194 0
-28.0885995501 8.63602843177 0.815477952463 0.1 0 119 135
-16.8889715445 8.01855344876 -0.364726194204 0.1 0 170 84
-48.5233268829 -1.04760043343 0.104065194738 0.1 0 14 240
-37.4370411739 -4.09961954665 -0.98449372246 0.1 0 71 183
18.4607996569 -0.0275054912627 1.43456148221 0.1 85 169 0
44.6326642124 -5.15751500734 1.86659420465 0.1 226 28 0
-6.40916189706 7.9175576968 0.357634435873 0.1 0 223 31
22.8324755522 8.86501522971 -4.15218113475 0.1 109 145 0
42.4522508135 -0.356986348002 0.433611268149 0.1 214 40 0
-46.9110944518 8.13353212494 4.35964183406 0.1 0 22 232
-15.5920344366 6.35515561442 1.19299615746 0.1 0 178 76
-7.71970200449 -2.6117110164 0.764064614335 0.1 0 216 38
-39.9347920682 1.50068996917 1.5192079011 0.1 0 58 196
-41.560776304 1.17421077926 1.67162497464 0.1 0 50 204
-25.2845467964 -7.32757699922 -2.86760670122 0.1 0 131 123
-32.9422876166 8.05989299245 2.45237808736 0.1 0 94 160
-36.7899646338 -0.305382608784 0.513510372955 0.1 0 75 179
48.8002790601 8.54798764617 -4.892666704 0.1 241 13 0
-34.3136524119 -6.45022250515 -3.19461665193 0.1 0 87 167
0.913197422449 -2.03419905139 0.670512567111 0.1 4 250 0
51.3465253423 8.05181870908 -3.48595012531 0.1 253 1 0
-22.7479287515 7.08170359484 1.46028622216 0.1 0 146 108
34.9071821291 -2.86862298471 1.01667799782 0.1 171 83 0
-30.5070086631 -2.14756235536 -1.56629146361 0.1 0 108 146
33.9008962568 2.5198311868 1.37683924191 0.1 167 87 0
-6.43455727154 -5.06529606992 -0.629913216273 0.1 0 223 31
44.4030408315 5.59731981561 -2.33549438077 0.1 225 29 0
0.479550426881 -0.405074906077 1.99260170459 0.1 2 252 0
49.228220187 -6.80750280624 2.64406676323 0.1 243 11 0
43.6957326332 -6.22003419158 2.19482324633 0.1 221 33 0
-10.1781966774 3.80805403861 2.01470153783 0.1 0 202 52
31.2281709267 5.08804687236 -2.05165978051 0.1 154 100 0
0.248401461672 9.2720289917 -0.668291355706 0.1 1 253 0
-12.0218556397 7.11417366619 -0.24839614193 0.1 0 194 60
-46.796852269 1.01445060483 1.96882431957 0.1 0 23 231
47.4684545471 -3.8316146298 1.55049620973 0.1 239 15 0
42.4855249866 2.89058058182 1.22040234806 0.1 214 40 0
-5.15425332099 -1.37862142055 0.05570943197 0.1 0 230 24
1.03198019796 -5.77764504067 -0.0386699583402 0.1 5 249 0
-37.9410842584 6.55510571583 3.63060188412 0.1 0 67 187
10.8911349937 -7.53320323007 0.122395230377 0.1 52 202 0
-26.1009313858 4.66185258086 2.18028009705 0.1 0 128 126
5.92668317741 -5.19704966101 1.66897834206 0.1 26 228 0
-26.7868995943 -7.74873125437 -2.80661138171 0.1 0 125 129
21.7599108201 7.59686208783 -4.31821290883 0.1 105 149 0
-34.686521964 0.0584805193215 0.45465443748 0.1 0 86 168
30.6898067463 1.96644867012 0.985891395047 0.1 149 105 0
-12.7192969317 2.57745334696 1.62449360679 0.1 0 190 64
-29.1411584889 -4.36269414691 -3.06175394548 0.1 0 113 141
21.017425454 -5.32103237417 1.55341550066 0.1 99 155 0
35.1443276093 -5.30546656487 3.04359874988 0.1 171 83 0
23.25134826 0.010996689081 0.800234272608 0.1 112 142 0
43.9870388633 -1.0725379655 -0.716931915564 0.1 223 31 0
7.49980196745 -5.49598279239 1.76528322065 0.1 34 220 0
-39.5578935587 -8.68822799114 -4.27669526405 0.1 0 60 194
-33.310425235 -6.22499782619 -3.06542416794 0.1 0 92 162
14.0686326492 5.35652515879 -2.57894657502 0.1 66 188 0
10.0012999494 8.01161058921 -1.58945935222 0.1 46 208 0
-28.7478844828 -6.18606484495 -3.08314121985 0.1 0 116 138
-31.0194392009 -5.30227453004 -2.8988641154 0.1 0 106 148
-1.62866269608 3.33096872325 -0.854768321728 0.1 0 246 8
30.1708460379 -7.41397145866 1.78679268314 0.1 145 109 0
-8.09629098082 -6.81900860685 0.468764339528 0.1 0 213 41
38.5807643072 4.87138587616 -1.61813080796 0.1 191 63 0
-49.3272140244 -4.51065162225 -2.44980351043 0.1 0 10 244
1.22275719785 3.2972058718 -0.663725516322 0.1 6 248 0
47.7856224711 -6.91670055045 2.21978764436 0.1 240 14 0
-12.5398740632 3.62998946818 2.34828082069 0.1 0 191 63
-5.3497290875 5.4232990274 -0.734731057574 0.1 0 229 25
-17.5499018917 -7.49923010868 0.910586850224 0.1 0 167 87
-45.0505329608 3.98329385715 4.51585061689 0.1 0 31 223
45.410732985 -0.65341804318 -0.018457202321 0.1 229 25 0
39.4381507601 5.29094001265 -1.65398191547 0.1 196 58 0
-35.1003286225 3.47985787842 2.54772888216 0.1 0 84 170
3.86215014988 -1.49377674409 0.405877393322 0.1 16 238 0
-16.0892909251 6.60917399517 0.93593726774 0.1 0 175 79
-48.0668705475 -8.80354920226 -3.10301609828 0.1 0 17 237
-44.1403792834 -4.05749605128 -2.64636616728 0.1 0 35 219
-15.0090870661 -5.92840278277 -1.51433232613 0.1 0 180 74
12.6955376789 3.54359059398 -1.04797427078 0.1 59 195 0
41.3221887741 1.5965839705 2.58313810624 0.1 207 47 0
-7.54750478295 -3.81505744143 -1.02142922999 0.1 0 218 36
-28.3581072435 7.60975763342 1.86337781331 0.1 0 117 137
-44.6664600012 -5.62271624488 -0.874279536113 0.1 0 32 222
1.37859674191 -0.334436733184 1.8788088409 0.1 6 248 0
-11.6505556065 5.04512207341 1.7113951058 0.1 0 197 57
23.8183182782 2.43120880476 -0.0929393069051 0.1 115 139 0
17.7966058082 8.77334212221 -3.66979255425 0.1 81 173 0
14.1904686772 -4.59777319724 1.53633851834 0.1 66 188 0
-0.0347573725756 -5.46752000866 0.0763244141825 0.1 0 253 1
19.0946417687 -5.63063737891 0.809261207407 0.1 90 164 0
1.14102752509 2.84135969875 0.234047096409 0.1 5 249 0
5.65913628749 -6.29353160966 0.706140865235 0.1 25 229 0
-41.4822272996 -9.1519231377 -3.99248659233 0.1 0 51 203
0.212619628529 5.27143905291 -1.42584414499 0.1 1 253 0
-46.2850102851 -8.41408548087 -3.37781258885 0.1 0 25 229
-41.5282090178 -5.52593271616 -0.60337184445 0.1 0 51 204
34.5103178711 2.71836980899 1.77764442699 0.1 169 85 0
-30.0192556814 6.18204528295 2.87124267041 0.1 0 110 144
-36.7418377634 -4.01467638886 -1.12082596279 0.1 0 76 178
-4.20494572807 -0.986534685211 -0.446156174663 0.1 0 234 20
-12.567460339 -5.23636954875 -1.91946913863 0.1 0 191 63
17.4050874579 8.4411180625 -3.60052913073 0.1 78 176 0
0.806241332939 -6.3046425156 0.717076523183 0.1 3 251 0
30.8891005011 5.77277617438 -2.60129855597 0.1 151 103 0
11.4760816086 3.42002767839 -1.01327244497 0.1 54 200 0
-32.5523595201 -5.89878358688 -3.31619880807 0.1 0 95 159
-23.402297925 -6.45410562898 -3.58559304967 0.1 0 143 111
6.6280491808 5.38243737278 -1.80636868057 0.1 31 223 0
-9.92942677842 3.83010750872 1.97172061058 0.1 0 205 49
43.3916063861 -6.72805423912 1.77240682408 0.1 220 34 0
37.9875072324 0.420453922892 1.50789723081 0.1 186 68 0
-6.97946615054 8.64959513609 0.92930540501 0.1 0 222 32
-42.4871328586 1.02657470229 2.13689443199 0.1 0 45 209
36.1556793945 -0.882741763107 -0.661991916453 0.1 176 78 0
-15.7813144755 -6.13411211155 -1.55463522187 0.1 0 177 77
-44.6273145636 4.43939991369 3.54172509364 0.1 0 33 221
12.7158729506 8.40807260661 -2.2969253843 0.1 59 195 0
30.5919479771 -6.0076712075 2.46154419471 0.1 148 106 0
-21.3194859569 2.16078403217 0.444815679303 0.1 0 153 101
-7.557655134 7.97768910912 0.112612109499 0.1 0 218 36
-45.0208072857 0.697008524096 2.55871522525 0.1 0 31 223
-5.90211244593 -5.72647941514 0.223891153226 0.1 0 226 28
22.2444380538 0.754743471815 -0.583130112019 0.1 107 147 0
41.0224829925 -3.04400807866 1.6294692544 0.1 205 49 0
30.3505437413 -6.48403610309 1.88576287549 0.1 146 108 0
14.8529613357 6.09072172663 -2.12470327251 0.1 68 186 0
-31.1753575245 6.39249556877 2.70204439136 0.1 0 105 149
-32.5100247062 4.78881903042 2.60980435062 0.1 0 96 158
38.1081585229 7.69316635607 -4.37677578884 0.1 186 68 0
-41.9375946423 4.53388927233 3.41972789009 0.1 0 48 206
-23.5140572642 1.19848262459 2.56225569589 0.1 0 142 112
-22.9542226713 -2.8321113353 -1.95004383782 0.1 0 145 109
-0.136890386203 -1.52115287472 -0.222286892221 0.1 0 253 1
0.0327114787791 2.86970529489 -0.326376899934 0.1 0 254 0
-37.324229562 -2.7328176901 -1.44906576505 0.1 0 72 182
-51.3637586761 8.40692019712 5.03310258813 0.1 0 0 254
-5.78127665869 4.3020917961 1.27323531905 0.1 0 227 27
51.2029358272 0.150637915548 1.35936912083 0.1 252 2 0
-37.2825231457 8.53956325009 2.77618353952 0.1 0 72 182
-14.2177856073 6.94532837886 0.831119010152 0.1 0 185 69
-4.10807806204 -4.88250585479 -0.00212932390095 0.1 0 234 20
-30.1090455229 -6.30048516016 -3.28360433347 0.1 0 109 145
21.3699992598 4.63348823292 -1.23692532687 0.1 102 152 0
-6.34838496105 -1.99779807184 0.108081740379 0.1 0 223 31
42.1327780457 6.88872943405 -3.67916861566 0.1 212 42 0
-40.8523409653 -8.98131970749 -4.16948299187 0.1 0 53 201
49.3017298733 0.120434981054 1.29652510603 0.1 244 10 0
14.4215070928 0.98293520532 -0.256619017667 0.1 67 187 0
-24.5202989214 1.97461559122 1.0597021597 0.1 0 135 119
6.22572619435 8.52067288907 -2.28973789245 0.1 28 226 0
40.0765247913 0.417150846183 1.54872539156 0.1 200 54 0
41.8683101662 1.69203252554 2.74693790959 0.1 210 44 0
10.7163079051 -3.98150241282 1.61779097382 0.1 50 204 0
-49.7260716103 4.73880510197 3.7672243122 0.1 0 8 246
-22.4233032753 2.29586177717 0.364950671192 0.1 0 148 106
41.5906065482 -6.76428096131 1.91306271917 0.1 208 46 0
29.6662954479 -2.78321638196 1.40226470454 0.1 143 111 0
-25.8982419516 -6.27850988048 -3.28638579464 0.1 0 129 125
-38.3515226699 -2.80963801386 -1.51706373178 0.1 0 65 189
1.28133866418 1.45025375985 -1.1257568681 0.1 6 248 0
-2.17489229815 -4.92883603598 0.298886481827 0.1 0 244 10
40.1848602636 5.67440255911 -1.66088412241 0.1 200 54 0
32.0639282073 0.257285733489 1.22943877713 0.1 158 96 0
-9.27993720273 7.08918923855 -0.705709380349 0.1 0 208 46
-3.41863440308 8.54243105176 0.0961903258043 0.1 0 237 17
-36.4335643158 1.60293688446 0.909406202456 0.1 0 78 176
23.3372792406 -4.85062551175 1.98676646631 0.1 113 141 0
21.7583087653 -0.721079417751 1.8286536811 0.1 104 150 0
-43.7312086627 -7.78495720554 -3.58578046459 0.1 0 37 217
-11.6028415343 0.905793340555 -1.56655362846 0.1 0 197 57
-31.8673660699 -2.62689916182 -0.849449204899 0.1 0 99 155
42.9782141879 8.58030400605 -4.03587936819 0.1 217 37 0
41.5537333832 -4.33443992657 1.59421494098 0.1 208 46 0
-47.6111751234 -8.60999051141 -3.46210215367 0.1 0 19 235
34.8181803187 5.43256563943 -1.88333890939 0.1 171 83 0
19.1167851224 9.11017318049 -3.73294948228 0.1 90 164 0
24.32781343 5.75732148625 -3.17317991056 0.1 118 136 0
-24.1412977045 -3.06853998589 -1.7321903495 0.1 0 137 117
43.497567119 -7.14052319108 1.61044752397 0.1 220 34 0
-41.0117416697 -4.73933464142 -0.193640845601 0.1 0 52 202
37.5584649899 5.42744033537 -1.70587006191 0.1 183 71 0
-7.37369272601 3.75652251492 1.45494336935 0.1 0 220 34
45.5735098452 -0.134039032784 0.789838028718 0.1 230 24 0
29.3564532896 -6.73164387445 1.05207914201 0.1 142 112 0
-3.69148383381 -7.18986201772 0.10148780891 0.1 0 236 18
-23.5995040025 1.16872712792 2.56859615903 0.1 0 142 112
2.48323936006 0.929716847219 -0.499288934328 0.1 12 242 0
-19.8388865385 7.77295642138 0.325241141581 0.1 0 159 95
4.42462264124 8.62889270024 -1.61175928145 0.1 19 235 0
6.66915271134 3.600572322 -3.55426498422 0.1 31 223 0
-11.7801877885 2.12141179818 1.00966796416 0.1 0 196 58
37.073986741 8.61376383866 -4.45045609459 0.1 181 73 0
50.3163939296 4.71702665313 -1.39330517386 0.1 248 6 0
-33.2513679331 -5.07238523702 -1.87454889572 0.1 0 93 161
-3.45490545181 -1.1124731045 -0.235332182909 0.1 0 237 17
10.8012081221 -7.7595579182 0.067370614979 0.1 51 204 0
30.7152787267 2.47288007524 1.56995442529 0.1 149 105 0
42.3342049807 0.0490609013175 0.955116754135 0.1 213 41 0
39.0429900795 -4.26971421321 1.87276247742 0.1 193 61 0
20.6089278143 8.55772819108 -3.91005127128 0.1 98 156 0
40.5602870872 -6.69309264997 2.33738257121 0.1 203 51 0
8.13489141626 -7.37260809223 -0.23547233837 0.1 37 217 0
-50.8667648604 -4.6447465642 -2.44287333051 0.1 0 2 252
-22.7212051248 -7.2057133293 -1.99683657492 0.1 0 146 108
-47.9216533615 -0.330182562673 1.09038315641 0.1 0 18 236
6.50878683575 2.20650310784 -2.35590017301 0.1 30 224 0
-34.801654357 6.30920113418 3.57891767226 0.1 0 85 169
45.0637341692 2.63260675834 1.47024785123 0.1 228 26 0
34.5489767598 -3.43262026089 1.55955837073 0.1 169 85 0
-28.7733317059 -5.12505605802 -3.88995753204 0.1 0 115 139
-26.8739539054 -0.359051989856 0.327655353916 0.1 0 125 129
-1.52257622083 -1.5326209349 -0.319536127589 0.1 0 247 7
24.4355576709 -5.0990007809 1.79597027899 0.1 119 135 0
-27.8116024951 -8.11013438529 -2.41425012913 0.1 0 120 134
5.96586442037 6.61062614566 -0.339147618756 0.1 27 227 0
-27.6251404069 -2.4120506036 -0.547554940333 0.1 0 121 133
29.4287756409 -7.29529734363 1.72726380306 0.1 143 111 0
-24.0009318136 -5.08537240015 -2.41682582235 0.1 0 139 115
9.59369970025 -1.72039454099 0.486152165213 0.1 43 211 0
-35.8664599774 6.2770456406 3.64370280931 0.1 0 81 173
38.120043976 -7.5038012084 2.19631049395 0.1 187 67 0
-17.7086317169 7.63460663222 -0.0116336258229 0.1 0 165 89
-7.48798882247 8.71321350333 1.21418072644 0.1 0 219 35
-42.0538403663 -8.50535645686 -4.4524782647 0.1 0 46 208
-43.9223510671 8.9406270246 3.09862014749 0.1 0 36 218
32.104150146 6.57310428753 -2.36012435401 0.1 159 95 0
-6.29049385945 6.76491045743 -1.44818093194 0.1 0 224 30
-8.91992210455 -5.60236744125 -0.772132861905 0.1 0 211 43
36.8720178065 0.474184772504 1.63430767357 0.1 179 75 0
14.1528133522 -3.01857900923 2.71928557077 0.1 66 188 0
5.16131042248 -2.78557732911 -0.819800063744 0.1 22 232 0
21.0180581765 -3.08706522465 2.57949863463 0.1 100 154 0
-46.0637754551 9.18422670877 3.18151057638 0.1 0 26 228
24.8936742621 -3.43614389444 2.65062228584 0.1 121 133 0
45.2538458719 -3.67442698414 1.60025551828 0.1 228 26 0
-28.9979261439 7.78074175409 1.73718863797 0.1 0 114 140
-51.2697389509 -4.03734131543 -3.33847756925 0.1 0 1 253
25.1261707559 -2.42771122059 1.53573272728 0.1 122 132 0
-28.4541096375 2.14421277785 0.910646785092 0.1 0 117 137
14.5805743381 -7.42066746784 0.392654148941 0.1 67 187 0
49.2527473175 4.80842960902 -1.11167034207 0.1 244 10 0
-51.6116199595 -5.51414526781 -2.13630104147 0.1 0 0 255
-30.8201768149 3.38826657098 1.45343254165 0.1 0 106 148
-6.88370960192 -2.13976906165 0.372396567521 0.1 0 222 32
23.9906238827 0.0876491361076 0.969655746368 0.1 116 138 0
-33.6010468558 -8.75051806738 -3.54867360186 0.1 0 91 163
-27.3006037979 -0.191106711404 -0.0662094432529 0.1 0 123 131
21.2224912662 7.86505052872 -3.67377017883 0.1 102 153 0
20.7845548066 -1.5710877166 2.73345677565 0.1 99 155 0
-25.1612053314 -3.16027724174 -1.7424105582 0.1 0 132 122
-8.38706364208 -3.22690256974 -0.0206597399514 0.1 0 212 42
30.9229413243 8.33523470901 -4.86452515347 0.1 151 103 0
8.36569485725 3.47323448807 -3.78890699208 0.1 39 215 0
-8.35853088638 -0.266452750782 -1.89293519622 0.1 0 213 41
31.1033236649 -0.916009896534 -0.5340293989 0.1 153 101 0
-7.92723832617 -5.76318022905 -0.404248447552 0.1 0 214 40
20.0005606379 -8.21641597704 0.636855023782 0.1 95 159 0
18.8197633366 -7.74422219377 0.967360708975 0.1 88 166 0
3.29169064573 8.74455761844 -0.909529341772 0.1 14 240 0
-5.52893053665 4.06184042595 0.893789717549 0.1 0 228 26
-13.5630090964 7.08056216957 0.266584589689 0.1 0 187 67
40.425949948 -4.688930605 2.02197605452 0.1 202 52 0
-15.835427748 1.68705057951 1.11421723078 0.1 0 176 78
-38.4748788646 2.64922145341 2.16091790207 0.1 0 64 190
-27.873256626 0.287721082527 0.0138844360893 0.1 0 120 134
23.8497091081 2.29336426261 -0.492095520047 0.1 115 139 0
44.6247848823 -3.60406518521 1.66890372687 0.1 226 28 0
-48.809126416 -5.26264072039 -1.94630887972 0.1 0 13 241
-45.7434977399 -4.70699983595 -2.25772696814 0.1 0 27 227
-30.7540382707 5.95864848938 3.42823809579 0.1 0 106 148
-32.1276557387 -2.73128834625 -0.671390879817 0.1 0 97 157
-21.2116856553 -2.35653568717 -1.90479677413 0.1 0 154 100
25.2168008939 -7.87431773073 1.5912175769 0.1 122 132 0
38.4336756829 1.05128568058 2.6110614385 0.1 190 64 0
-32.813604417 0.610403609657 -0.446477080544 0.1 0 95 159
5.6741191605 5.23393854121 -1.50060024062 0.1 25 229 0
28.3372667348 -8.429451153 1.27796716649 0.1 137 117 0
9.83922283439 -6.69477748487 0.721513907228 0.1 45 209 0
25.3606155139 8.57696043012 -4.24841436193 0.1 123 131 0
10.0403667489 -6.6679754989 0.680812496705 0.1 46 208 0
6.55541736089 0.3599029759 0.838400843051 0.1 30 224 0
23.7731583632 -2.13891797965 1.85419980591 0.1 115 139 0
-18.5560941533 1.71641824146 1.3567305629 0.1 0 162 92
38.6733158777 0.491425369212 1.65242750633 0.1 191 63 0
11.7275496385 -7.17610191012 0.279592262239 0.1 55 199 0
-37.8372750045 -2.76237516592 -1.51391668039 0.1 0 69 185
24.0347163293 8.29537953456 -4.24995450578 0.1 116 138 0
-51.4630228177 -1.36212490174 -0.075281892543 0.1 0 0 254
6.886783112 7.55671840924 -0.470486683101 0.1 32 222 0
-31.3145077671 -6.39947999055 -3.49449667564 0.1 0 103 151
-10.1098950315 -1.367476767 -0.968055405267 0.1 0 203 51
-50.8019190312 -4.69089999701 -2.29312241189 0.1 0 2 252
-35.7852540743 -2.57224108814 -1.65733687142 0.1 0 81 173
20.416188217 6.89842114572 -4.91396742878 0.1 97 157 0
-22.8651323828 -7.01131012311 -2.42311336734 0.1 0 145 109
47.0182786899 0.00778967068454 1.04339197149 0.1 238 16 0
8.91160689871 7.14639516425 -1.03474197493 0.1 41 213 0
-44.4513793703 6.38906247594 5.01304512631 0.1 0 33 221
-39.6359104662 -4.526165154 -0.455556782594 0.1 0 59 195
-1.08591416688 7.55077353334 0.827032502047 0.1 0 248 6
45.9125955699 -4.32226333581 1.12910103179 0.1 232 22 0
0.405795805425 1.97535457427 0.245364623614 0.1 2 252 0
38.6768395993 2.54842049298 1.27644042875 0.1 192 62 0
39.661653846 -0.937843588556 -0.670166473484 0.1 197 57 0
15.9659115277 -5.27716210612 0.630595666745 0.1 72 182 0
41.6735399257 0.493830071355 1.68512217175 0.1 209 45 0
-33.0082840464 -2.67847054381 -0.926156321048 0.1 0 94 160
8.34987628403 -4.45217524423 2.44162175476 0.1 38 216 0
-0.507206294328 1.98352602254 0.225869097199 0.1 0 251 3
-50.5839297168 3.07036553046 3.30981474436 0.1 0 3 251
46.299849257 -6.82064224706 2.1228269099 0.1 235 19 0
-45.2018354264 8.56904129207 3.74871108941 0.1 0 29 225
-45.396762999 4.30451416134 3.93906412175 0.1 0 28 226
-33.9799055534 5.53325162031 3.05248622322 0.1 0 88 166
-32.3435712596 -2.29286510253 -1.36957448049 0.1 0 97 157
-41.5158305812 -4.22317215744 -1.82326955429 0.1 0 51 203
-6.22820651863 -1.19374374148 -0.436308625562 0.1 0 224 30
20.8413583008 7.71892139864 -3.75970205388 0.1 99 155 0
17.4718010926 8.1768792168 -4.19726954968 0.1 79 175 0
-21.5663154515 7.41847802765 1.15785119535 0.1 0 151 103
40.8685754436 -3.58224992266 1.02952437328 0.1 205 49 0
1.90966304347 8.45458475317 -0.410306144492 0.1 9 245 0
27.3431998286 -6.23973936019 1.16688614324 0.1 133 121 0
31.3671053753 -7.12373434504 2.18369612484 0.1 155 99 0
37.9842310625 2.51045086825 1.26924030626 0.1 185 69 0
18.5233516147 2.95213946702 -0.485190744987 0.1 86 168 0
8.10387135403 -7.32504892402 -0.205724023842 0.1 37 217 0
11.1735842184 7.30182649831 -1.58112828593 0.1 53 201 0
-2.47804446525 -5.34645253285 0.77426199907 0.1 0 242 12
-24.3039043717 5.39653476118 2.28229024348 0.1 0 136 118
23.8711443428 -3.89060921664 2.47843151 0.1 115 139 0
3.75053680101 5.02174857946 -2.02792286289 0.1 16 238 0
18.4161452885 1.61117062398 -1.13659248811 0.1 84 170 0
-41.5596770489 8.81138153308 3.14548416988 0.1 0 50 204
-47.6796256524 -2.12611354707 -1.46844716957 0.1 0 19 235
27.3414943031 -6.23831492028 1.16971552338 0.1 132 122 0
-7.10232572324 5.98388880359 -1.23290717733 0.1 0 221 33
10.1709435868 -7.94325038176 -0.235041971597 0.1 47 207 0
32.2780072322 7.74413462979 -4.11754487212 0.1 160 94 0
-22.6271662337 -7.85867928252 -0.562143096187 0.1 0 147 107
19.6741478274 1.80332334853 -0.817637802082 0.1 94 160 0
23.2267119626 9.20475964437 -3.70258068531 0.1 112 142 0
-43.3149159938 -7.59307096103 -3.93838416577 0.1 0 40 214
23.9690025198 -1.16674600649 2.04736708249 0.1 116 138 0
4.16801975593 3.92099556261 -2.36070694854 0.1 18 236 0
49.045721144 -6.95001048275 2.39790419112 0.1 243 11 0
-12.8198128245 1.90450841655 0.779254821282 0.1 0 189 65
-50.3643700049 4.8425252329 3.64315263088 0.1 0 5 249
40.2168410839 0.551076257884 1.77900550131 0.1 201 53 0
46.186501446 -3.84446981058 1.38326371228 0.1 234 20 0
-40.2528443382 -4.6673117958 -0.188886529859 0.1 0 56 198
43.5881590111 -6.28523350092 2.2585107294 0.1 221 33 0
-12.572955772 -5.20490643034 -1.96170202014 0.1 0 190 64
-50.7847327999 8.70067967545 4.74996837674 0.1 0 3 251
17.2818375492 9.11569985583 -3.12416504585 0.1 77 177 0
5.60968383117 -6.68174234692 0.139175921986 0.1 24 230 0
35.2860484963 -0.820753671482 -0.539567344941 0.1 172 82 0
-39.1178979991 1.47579428637 1.5376998703 0.1 0 61 193
-13.288455982 3.13040196245 1.85743377671 0.1 0 188 66
15.9739668474 1.03684979186 -0.246411113141 0.1 73 181 0
-9.18868259445 3.9104287803 1.72318109139 0.1 0 209 45
-34.1335672156 -2.74650906347 -1.02136702348 0.1 0 88 166
-15.8450301515 -1.79075189101 -0.860630448064 0.1 0 176 78
10.2308792695 -3.90871608399 0.668833630719 0.1 47 207 0
-34.2444014115 3.25687997274 2.90837411252 0.1 0 88 166
30.1819531858 -7.12453790432 1.84573027782 0.1 145 109 0
-39.0623551171 6.57125883184 3.89670306972 0.1 0 61 193
-21.1203769208 1.55891729209 1.77832909319 0.1 0 155 99
33.8131557954 -2.82199123911 1.04340578161 0.1 165 89 0
31.536389503 -2.25727452285 1.04860056252 0.1 156 98 0
2.07616119406 8.31167686723 -0.354554131253 0.1 10 244 0
-31.8034233887 6.43458522784 2.76172456402 0.1 0 100 154
10.1300051819 1.20862853892 -0.119412903725 0.1 47 207 0
35.4520723043 -0.292717495925 0.319487470035 0.1 173 81 0
-34.2989949802 -6.95359130036 -3.62593199163 0.1 0 87 167
-21.1413652036 -7.06044374147 -1.45731979543 0.1 0 154 100
50.5163154405 9.42191557337 -4.48298754709 0.1 249 5 0
36.1140201626 9.23986088138 -4.14086222742 0.1 175 79 0
15.7508479576 2.91738768217 -1.37298511677 0.1 71 183 0
32.4888884936 -6.38456330577 2.61788734968 0.1 161 93 0
18.9568863808 7.38415493904 -3.79238472167 0.1 89 165 0
33.8334737897 -3.36613733807 1.60025718371 0.1 166 88 0
-28.5224332002 1.65308590122 1.63908902829 0.1 0 117 137
-9.90376967719 0.895985680501 -1.62094761749 0.1 0 205 49
-48.7892477829 1.83154416885 1.94142197407 0.1 0 13 241
7.01764674436 5.20684629704 -2.00097833343 0.1 32 222 0
12.7565102178 -5.00822286677 1.68966315794 0.1 60 194 0
43.3896722141 -6.37706177422 2.37062284244 0.1 219 35 0
42.2532590303 8.30782711753 -4.37088449047 0.1 213 41 0
-31.1317682789 -8.48799245861 -2.89889242229 0.1 0 105 149
-25.8700500206 5.38337331365 2.7650876842 0.1 0 130 124
-38.416287567 8.61274882079 2.95575326071 0.1 0 64 190
33.8631470092 8.0714132101 -4.02249967193 0.1 167 87 0
-8.48823816979 5.90485143445 -0.727135470217 0.1 0 212 42
-50.3835589754 4.80371402516 3.7405123084 0.1 0 4 250
39.2486196692 1.06205416244 2.63905246882 0.1 195 59 0
-2.40355533588 5.34360399185 -1.35769847878 0.1 0 243 11
43.4318670253 8.76914186212 -3.77826393014 0.1 220 34 0
-48.2804982526 4.49665360069 4.04954173032 0.1 0 16 238
10.8635109928 2.29752316301 -1.16561242533 0.1 51 203 0
2.02876508937 -5.81813952027 0.268675800846 0.1 10 244 0
19.4892860215 1.69954323896 -1.0272504715 0.1 92 162 0
19.3177780414 -0.249846130724 1.08783856844 0.1 91 163 0
49.6998030093 0.0592613588856 1.17370190744 0.1 247 7 0
-44.0925066548 1.24653422428 1.35162615371 0.1 0 36 218
46.2046299219 -6.71216670783 2.30268044407 0.1 234 20 0
-43.5653312252 8.19732069472 3.85476799499 0.1 0 38 216
-30.7174339783 7.79357036389 2.29100723464 0.1 0 107 147
-26.851842296 -5.15523180565 -3.63964418201 0.1 0 125 129
20.2464345952 -6.75577611498 1.67687659677 0.1 96 158 0
-19.4128647372 -7.52758767263 0.0412456239724 0.1 0 160 94
7.92716681388 -7.93893552766 -1.2087513178 0.1 35 219 0
-31.1854892443 7.54255816593 2.79026016244 0.1 0 105 149
-24.6345179699 -7.09008891566 -3.21671744859 0.1 0 134 120
-39.327274633 9.15176305909 2.33788195145 0.1 0 61 193
28.7104377058 -1.89011857604 2.04995228879 0.1 138 116 0
-39.8614534553 0.0798952361293 0.359629726216 0.1 0 58 196
-9.0780452106 5.62681983128 -0.155813087415 0.1 0 210 44
-18.0582292519 -6.71798359701 -0.94590534058 0.1 0 164 90
-27.1409855926 -7.76442994748 -2.96110167041 0.1 0 124 130
-10.3167189362 6.84502583209 -0.480171591756 0.1 0 201 53
43.3423712854 -6.46858502815 2.19208461287 0.1 219 35 0
46.1547742065 0.435337630633 1.70020860719 0.1 233 21 0
-31.6508768219 -2.23132479121 -1.55536898309 0.1 0 102 153
-17.978759782 -7.08097295956 -0.229745830439 0.1 0 164 90
-37.495147152 8.777685442 2.49477947267 0.1 0 70 184
-13.932103187 -0.912365102361 -1.42322538164 0.1 0 186 68
26.8687805742 -8.39798901655 1.13672332789 0.1 130 124 0
3.94044488484 5.98693211154 -0.846454194951 0.1 17 237 0
42.5726517426 -0.804443325801 -0.363215616029 0.1 215 39 0
-45.4636397352 6.03055198213 4.64754281559 0.1 0 28 226
-14.2765816979 -1.47901168608 -1.01101582257 0.1 0 184 70
-15.6200461528 -6.79806590679 0.378193117153 0.1 0 178 76
13.0129350772 8.51128400638 -2.31745189213 0.1 61 193 0
-3.25699986916 -4.9455015173 0.109639886046 0.1 0 238 16
34.2058268419 2.67227711369 1.70069735191 0.1 168 86 0
-11.8101274106 5.8153376027 0.804088705617 0.1 0 195 59
5.33351386769 -7.32011953021 -0.690891343298 0.1 23 231 0
-17.2093234718 3.84205908236 2.71092229468 0.1 0 169 85
32.4140618434 -7.09651000365 2.50177977746 0.1 160 94 0
-42.3775471087 1.13703409562 0.935544754115 0.1 0 46 208
31.3333731344 1.38179241059 1.39566762466 0.1 155 99 0
19.9024275575 7.54375502466 -3.77118657905 0.1 95 159 0
27.5217558805 2.75599014741 -0.0350890318088 0.1 133 121 0
44.5121431741 4.41565261481 -0.78997174394 0.1 225 29 0
-36.658295314 6.08560071294 3.89548674451 0.1 0 77 177
-49.5211725036 -8.84719753607 -3.63825747348 0.1 0 9 245
-46.4599871307 -4.26317296914 -2.48157210075 0.1 0 24 230
-9.87188672999 -5.87741743673 -0.54460785835 0.1 0 205 49
18.973958641 3.00621929227 -0.502013831211 0.1 89 165 0
39.9938680044 1.40446543214 2.21309126951 0.1 199 55 0
-29.4425773927 0.239030268154 0.0965221851476 0.1 0 112 142
-43.3927303272 -3.88296413887 -2.76192574239 0.1 0 39 215
14.7133106567 -3.83182395735 3.02701979411 0.1 68 186 0
49.0954367376 -4.00711791591 1.39776253765 0.1 243 11 0
4.86390884991 -6.4564525822 0.273445992966 0.1 21 233 0
-38.7556121202 -4.39718722766 -0.542740787811 0.1 0 62 192
-37.0542540153 -8.77364011906 -3.40755864042 0.1 0 73 181
-21.4962925475 -1.86860619494 -1.76189629002 0.1 0 152 102
-48.4676326639 -3.6774127162 -3.31816545333 0.1 0 15 239
13.8520851107 -4.0347637267 2.28777045971 0.1 64 190 0
29.2900342302 8.86721701128 -5.07201241921 0.1 142 112 0
-50.4608757737 -1.24455184995 0.053988850449 0.1 0 4 250
10.369844585 -7.57872982163 -0.0556822299993 0.1 48 206 0
31.0294485368 -6.25787631766 2.1391105247 0.1 153 102 0
-5.18708209352 -4.89852259071 -0.293337730624 0.1 0 230 24
-14.7561963055 4.78994479229 1.28943519499 0.1 0 181 73
-26.7698841701 1.94144143278 1.22881627516 0.1 0 126 128
46.0335552395 0.765630396956 2.24809857052 0.1 233 21 0
44.7707813208 8.51330118879 -4.66905990389 0.1 227 27 0
1.00288110975 2.41698996641 0.702580679214 0.1 4 250 0
-25.7839431175 2.56145248297 0.221473304597 0.1 0 130 124
-41.9950920116 1.06081344833 1.0971640186 0.1 0 47 207
4.7464893826 -6.9978698803 -0.521453478845 0.1 20 234 0
-43.3408505588 4.09317500755 4.05191372397 0.1 0 39 215
45.9579922929 0.69025802854 2.13862331407 0.1 232 22 0
-47.8742251033 -4.65013083394 -1.85819936833 0.1 0 18 236
-2.43249469703 9.05525841342 0.285942039683 0.1 0 242 12
38.6158970857 -7.55833596545 2.08740898577 0.1 191 63 0
23.3826166349 2.23728948479 -0.555135067897 0.1 113 141 0
20.4158301523 7.22827418023 -4.333654929 0.1 97 157 0
28.558648461 -0.421390784039 0.178129998761 0.1 137 117 0
46.1655787028 2.43942250758 1.06329810811 0.1 234 20 0
-23.3520638403 -4.7446789655 -3.09665084694 0.1 0 143 111
-49.9739276302 0.809125102748 2.29413863115 0.1 0 7 247
24.7654452664 0.0415365267229 0.836743448336 0.1 120 134 0
-49.7105994212 4.79080834961 3.63300244101 0.1 0 8 246
28.7264681181 -2.29584476006 2.27962877657 0.1 139 115 0
44.0586773965 -6.83495245788 1.69495074743 0.1 223 31 0
-12.0645947718 -1.70375861673 -0.757777372816 0.1 0 194 60
41.1274704515 -4.53111490461 1.86495821908 0.1 206 48 0
34.8182105926 0.0472101828077 0.974729712804 0.1 171 83 0
25.9808590634 -2.65633158362 1.47600606837 0.1 126 128 0
-12.3712662741 0.799736472495 0.0506640685968 0.1 0 192 62
46.694335924 -6.6096151516 2.56033800113 0.1 236 18 0
5.88722815216 5.62366620492 -1.90026489922 0.1 26 228 0
27.0288073309 4.60942863764 -2.76872377114 0.1 131 123 0
-11.2606688864 4.07383220286 1.82303406206 0.1 0 198 56
-7.84902849181 -0.652582854749 -1.25943305947 0.1 0 215 39
31.3621268481 9.57108221591 -4.81502797418 0.1 155 99 0
33.7571473083 -6.41489599056 2.84026962739 0.1 164 90 0
36.00930932 -0.450718626199 0.0638504847623 0.1 174 80 0
45.9086114983 -3.68121618999 1.67645309231 0.1 232 22 0
36.2936360583 0.570932765372 1.82682103827 0.1 176 78 0
-36.5569083612 1.69422392153 1.0327881422 0.1 0 78 176
-31.3972931942 8.47366410969 1.32967766922 0.1 0 103 151
-4.0823772792 5.79847210376 -1.88996376966 0.1 0 235 19
11.1236816458 2.89548806643 -1.63411810282 0.1 53 201 0
7.85081646985 -1.97081491334 0.352192468561 0.1 35 219 0
-41.9818936805 -7.18735976021 -3.07313595335 0.1 0 47 207
-17.4227347068 -6.95309828898 -0.249195560251 0.1 0 168 86
28.0281955807 -0.290175373012 0.317819969149 0.1 136 118 0
30.2977558289 -5.98579262092 2.4440464892 0.1 145 109 0
-28.1241116036 5.63431397089 2.87920296463 0.1 0 118 136
28.8783813235 0.575391636064 1.71741283732 0.1 140 114 0
12.9651720002 -2.41481741061 2.12289716346 0.1 61 193 0
23.1791535554 -5.20842449045 1.76112086172 0.1 111 143 0
41.0491375648 -4.7523579667 1.99024810616 0.1 206 48 0
-4.87848774892 5.0218010394 0.0612078353022 0.1 0 231 23
-9.27979869476 -1.68002887226 -0.563069862443 0.1 0 208 46
40.7955397602 5.04498102411 -1.68355145347 0.1 204 50 0
-41.7362281384 7.67771856653 3.22372171524 0.1 0 49 205
-10.1600312009 -6.95965137468 -0.0629068604688 0.1 0 202 52
21.3796813306 0.941592948575 -1.09394259952 0.1 102 152 0
-10.1588462535 -2.60756312046 -0.310748365527 0.1 0 202 52
-42.7220396231 3.31110198602 3.95712532751 0.1 0 43 211
-5.99560201658 8.85331020362 0.678641619286 0.1 0 225 29
-28.3146144324 -6.61070441741 -3.22861679485 0.1 0 118 136
1.21713781955 -1.79481466668 0.100477484868 0.1 6 248 0
-3.80217302899 0.717931224903 3.34481419316 0.1 0 235 19
-34.4945415258 0.48468228613 -0.327353918998 0.1 0 87 167
49.7307124814 -7.21353213468 2.06315015835 0.1 247 7 0
-23.6381303653 -2.71053233795 -2.03234142453 0.1 0 142 112
49.0374854743 0.121784045423 1.29940770489 0.1 242 12 0
33.3738402935 -6.66548374889 2.91541624958 0.1 163 91 0
45.8515694654 -1.082623375 -0.70959423016 0.1 231 23 0
-43.8662799983 7.49845021886 3.60827269946 0.1 0 37 217
-38.2401179202 6.36639093198 4.13082635247 0.1 0 65 189
-33.9686819587 -2.79479517872 -0.848567508014 0.1 0 89 165
-27.4092915866 -8.07642128969 -2.2557135491 0.1 0 122 132
13.6310304235 -7.68087546134 0.00321620362292 0.1 63 191 0
-11.2096788451 6.9667022061 -0.286017461426 0.1 0 198 56
47.5242209701 0.420669973043 1.76247362445 0.1 239 15 0
-7.8249361101 6.82843320822 -0.992588306906 0.1 0 215 39
1.09591473463 -1.39513603402 -0.0613488530696 0.1 5 249 0
-39.6378765123 8.75971025706 2.94725111503 0.1 0 59 195
29.8820773447 -0.515340444217 0.0568612016588 0.1 144 110 0
37.7767361937 -7.399240278 2.24360940472 0.1 184 70 0
13.9801551253 5.58263914951 -2.70669285283 0.1 65 189 0
36.8320315192 0.474391709193 1.63547824986 0.1 179 75 0
29.0793914053 -6.2391138094 1.53984028223 0.1 141 113 0
-9.84356873972 -4.20833021427 -1.54434162899 0.1 0 206 48
-2.44094078335 -5.76661355064 0.942256256648 0.1 0 242 12
30.7207235369 -7.3904192608 1.98007397659 0.1 150 104 0
-19.3017768843 -2.98604917836 -1.70968159691 0.1 0 160 94
-26.0428286095 6.92835941503 2.46742824217 0.1 0 128 126
-48.0686452626 4.53305346548 3.91934707254 0.1 0 17 237
30.5146593896 9.03217259215 -5.26118142341 0.1 147 107 0
18.5080383432 9.19352714861 -3.36550686095 0.1 86 168 0
-17.7668068573 -2.89869763685 -1.4523887239 0.1 0 165 89
-27.4036947717 0.870836739937 1.41579995232 0.1 0 122 132
-30.1537568666 -1.36282103256 -0.423349041368 0.1 0 109 145
-39.567665692 0.207986125298 0.0894288294067 0.1 0 60 194
-42.0389534543 -5.46736625871 -0.482124049026 0.1 0 47 207
42.8868042234 1.56803331557 2.50004187815 0.1 216 38 0
22.8847529915 -5.13484171606 1.81723399743 0.1 110 144 0
-40.6337667026 0.981564803009 1.25463651706 0.1 0 55 199
-44.097297871 8.89383296513 3.14891752932 0.1 0 35 219
19.2392958367 9.23651878518 -3.57100886505 0.1 91 163 0
-20.089948643 -7.16630318064 -1.02918169861 0.1 0 158 96
11.8354651546 5.42031888819 -3.03748779473 0.1 55 199 0
-35.7077335776 0.0166545936861 0.489436006441 0.1 0 82 172
-34.4954512448 -6.5257937918 -3.04800893394 0.1 0 86 168
29.1192181372 5.69363924699 -2.43331196306 0.1 141 113 0
-42.8613537122 0.899073172295 2.46807179804 0.1 0 43 211
-40.7085409399 -8.9574716775 -4.13985401555 0.1 0 55 199
35.2643945263 0.666625991643 2.00914526186 0.1 172 82 0
30.8640238286 5.95095892993 -2.30226466277 0.1 150 104 0
-7.68146228611 -4.70162973819 -1.31651345016 0.1 0 217 37
-4.46947779757 8.2826751345 0.0145933375696 0.1 0 232 22
7.5516576538 -1.01787592542 1.1200505404 0.1 34 220 0
-5.92440063148 -0.936571252287 -0.832525117294 0.1 0 226 28
-9.97941006079 9.00668477562 1.75211486402 0.1 0 204 50
8.10724665955 4.82543021097 -2.42634766199 0.1 37 217 0
6.16325450527 -7.72169104084 -1.25186977713 0.1 27 227 0
-43.0829552863 -3.58953768681 -3.07873407653 0.1 0 41 213
-24.4385793159 6.86610920837 2.20861700787 0.1 0 136 118
